# .PCD v0.7 - Point Cloud Data file format
VERSION 0.7
FIELDS x y z rgb normal_x normal_y normal_z curvature
SIZE 4 4 4 4 4 4 4 4
TYPE F F F U F F F F
COUNT 1 1 1 1 1 1 1 1
WIDTH 537
HEIGHT 1
VIEWPOINT 0 0 0 1 0 0 0
POINTS 537
DATA ascii
2.5076444 -1.2451328 0.52131784 10653838 -0.99159336 0.096453108 -0.086251773 0.027228843
2.4857666 -1.2393495 0.52368587 10653327 -0.98159587 -0.18384078 -0.051693261 0.043987472
2.5079582 -1.2259825 0.52155548 10654103 -0.98132062 0.16667333 -0.096072264 0.028926309
2.4685352 -1.2126317 0.52152705 10455687 -0.98647308 -0.0919367 -0.13571481 0.029738838
2.5082724 -1.2068324 0.52179307 10588561 -0.92001051 0.33476749 -0.20374364 0.07051944
2.4688728 -1.1942805 0.52148789 10653587 -0.98257035 -0.089790016 -0.16276741 0.027815837
2.52666 -1.1958512 0.5249933 10917275 -0.84448773 0.48471907 -0.2277894 0.068829305
2.5460563 -1.1850423 0.52836168 11312546 -0.84807181 0.40683687 -0.33949682 0.077463105
2.4692104 -1.1759294 0.52144873 10917527 -0.97708642 0.1214345 -0.17480189 0.030126544
2.546375 -1.1656102 0.52860278 11245722 -0.90408462 0.16866249 -0.39266279 0.071505867
2.469548 -1.1575782 0.52140951 10785689 -0.95799893 0.20713566 -0.19832511 0.031309959
2.4874663 -1.1469462 0.52348864 11179159 -0.81253248 0.45940244 -0.35880405 0.074176528
2.5276089 -1.1379892 0.5257113 11376801 -0.91784108 -0.074401535 -0.38991299 0.049531076
2.4878063 -1.1284657 0.52344918 11245472 -0.74531066 0.45759666 -0.48488903 0.064718388
2.5279253 -1.1187018 0.52595061 11771046 -0.92502737 -0.034872148 -0.37829658 0.051987633
2.4881461 -1.109985 0.52340978 11377312 -0.88561195 0.26702133 -0.37998834 0.076126039
2.5060742 -1.0988351 0.52548784 11376799 -0.90556949 0.078403682 -0.41688955 0.056590788
2.5282416 -1.0994145 0.52618992 11837350 -0.92534077 -0.031588126 -0.37781835 0.050980907
2.5064166 -1.0802249 0.52544814 11640222 -0.92439544 0.062612303 -0.37626162 0.040558722
2.5476499 -1.0878818 0.5295673 12034216 -0.9174996 0.11945273 -0.37937504 0.067689262
2.5067589 -1.0616148 0.52540839 11969447 -0.91975576 -0.006124856 -0.3924436 0.03545012
2.5288744 -1.0608398 0.52666855 12166315 -0.94490755 0.22468971 -0.2380425 0.066518873
2.5071013 -1.0430046 0.52536869 11837611 -0.90907782 -0.04197688 -0.41450635 0.035419535
2.5074437 -1.0243945 0.52532899 12166828 -0.89918298 0.074966192 -0.43110335 0.044600349
2.5077858 -1.0057844 0.5252893 12035242 -0.87409019 0.14303486 -0.46422768 0.044436771
2.5257304 -0.99372786 0.52736545 12035240 -0.91467339 0.10145978 -0.3912524 0.03731966
2.5084705 -0.96856415 0.52520978 12101035 -0.93763459 0.14304709 -0.31682649 0.047600962
2.5088129 -0.94995391 0.52517009 12100270 -0.97007066 0.10374732 -0.21954364 0.04603184
2.5307722 -0.94511569 0.52810454 12495029 -0.92753756 -0.36550096 0.077994578 0.016942888
2.5267646 -0.93750894 0.5272454 12495029 -0.97046912 0.18271302 -0.15749842 0.035253644
2.5310886 -0.92582834 0.52834386 12430514 -0.9406001 -0.32684937 0.091875166 0.017679729
2.5271091 -0.9187693 0.52720547 12560821 -0.97476637 0.12522107 -0.18479803 0.024224231
2.5132978 -0.90042859 0.52559507 13022400 -0.98349315 -0.17809665 0.03198228 0.030574953
2.5274539 -0.90002966 0.52716541 13349306 -0.98322815 -0.049723409 -0.17547107 0.025999047
2.513612 -0.8812784 0.52583271 12891069 -0.9931047 -0.11718784 -0.0031847544 0.041006111
2.5277987 -0.88129002 0.52712548 12956090 -0.98071444 -0.10384997 -0.16557327 0.019012142
2.5139258 -0.86212814 0.5260703 12825272 -0.99798608 -0.058052372 -0.025568336 0.034058399
2.5105245 -0.8569032 0.52497149 12432058 -0.97555363 -0.21906276 0.017512947 0.030881608
2.51424 -0.84297794 0.52630794 12891069 -0.99403054 0.077022105 0.077272072 0.049278922
2.4932451 -0.83277541 0.52281815 12169136 -0.99766874 0.067694828 0.0086345086 0.057223484
2.5145543 -0.82382768 0.52654558 12759740 -0.9255538 0.33865193 0.16930759 0.05838633
2.511209 -0.81968296 0.52489209 12692918 -0.99231797 0.10710801 0.061911378 0.047337804
2.5329866 -0.81010425 0.52977979 12956092 -0.94868326 0.30400464 0.087071329 0.062712528
2.5291774 -0.8063314 0.5269655 12824253 -0.9968611 0.078840502 0.007225797 0.049987551
2.5118937 -0.78246272 0.52481264 12890300 -0.99063241 -0.13651086 0.0034958124 0.036870528
2.5122359 -0.7638526 0.52477288 13021885 -0.99459946 -0.10378192 0.0011784434 0.054203782
2.5141943 -0.74623454 0.52611458 13087933 -0.98629385 -0.099652387 -0.13150577 0.04526503
2.5305562 -0.73137289 0.52680552 12891329 -0.98945063 0.095817737 0.10865746 0.032573365
2.5161245 -0.72807646 0.52773368 13285827 -0.94885743 -0.21828514 -0.22808175 0.059519716
2.4983087 -0.70418483 0.52496612 13350848 -0.98537362 0.042541575 -0.16501245 0.048616894
2.513263 -0.708022 0.52465379 12759481 -0.99026304 0.063964017 0.12364359 0.028196948
2.4986205 -0.68517178 0.52520204 13285057 -0.99035388 0.039009288 -0.13295677 0.056534704
2.5136054 -0.68941188 0.5246141 13087676 -0.99086624 0.12995335 -0.036003843 0.030742656
2.5155072 -0.67071378 0.52651048 12891069 -0.98898298 -0.040868837 -0.14227571 0.051571608
2.5142899 -0.65219164 0.52453458 12431545 -0.95065725 -0.30984718 -0.015669273 0.042517819
2.4992442 -0.64714551 0.52567393 13153986 -0.99508655 -0.02311595 -0.096273601 0.059015684
2.4982703 -0.62881041 0.52414703 13154758 -0.99011123 -0.12794423 -0.05753278 0.046763256
2.4973245 -0.61100769 0.52234483 12890814 -0.99775547 0.057685837 0.034006283 0.040318336
2.4998679 -0.6091193 0.52614576 13350599 -0.99320072 0.11037796 -0.037001003 0.063448891
2.4976642 -0.59252709 0.52230537 13350338 -0.98218572 0.18430834 0.036629204 0.028873604
2.5183232 -0.59402478 0.52939707 13154499 -0.99806184 -0.06036422 0.01512881 0.062528327
2.5004916 -0.57109308 0.52661759 13088706 -0.9334392 -0.32643425 -0.14876831 0.038607821
2.5156591 -0.57775104 0.52437574 13021632 -0.98748851 0.15607554 -0.022515625 0.036767337
2.4983442 -0.55556577 0.52222657 12759741 -0.99766892 0.035749871 -0.058126852 0.041837402
2.5008035 -0.55207992 0.5268535 13285827 -0.97249109 -0.19419509 -0.12864406 0.059856981
2.4986842 -0.53708512 0.52218711 13284798 -0.99601525 -0.015565676 -0.087814815 0.031710751
2.5011153 -0.53306681 0.52708942 13285825 -0.99190253 -0.00086952705 -0.12699874 0.045864556
2.4990242 -0.51860446 0.52214766 12825787 -0.99162477 0.035779916 -0.12409683 0.02179982
2.5014272 -0.5140537 0.52732533 13416644 -0.97339112 0.063463911 -0.22018659 0.028577818
2.5170283 -0.50331044 0.52421689 12694201 -0.99345815 -0.0088244369 -0.11385582 0.021376504
2.501739 -0.49504057 0.52756131 13153472 -0.97618073 0.11980034 -0.18088444 0.035296749
2.4997039 -0.48164326 0.52206874 12956860 -0.97201151 -0.22134313 -0.078745849 0.035529815
2.5020509 -0.47602743 0.52779722 13285825 -0.99298644 0.058229573 -0.10289407 0.033464447
2.5000439 -0.4631626 0.52202928 12891067 -0.94501567 -0.32384679 -0.045482218 0.03608023
2.5023627 -0.45701429 0.52803314 13089476 -0.99897897 0.038245868 -0.024049079 0.024444873
2.5026743 -0.43800122 0.52826905 13220034 -0.99166244 -0.12858704 -0.0084240139 0.025310302
2.5007236 -0.42620131 0.52195042 13021883 -0.99816597 0.048532143 0.036184952 0.049905799
2.5029862 -0.41898805 0.52850497 13482177 -0.97821456 -0.20656829 -0.020636439 0.034849774
2.5010636 -0.40772066 0.52191103 12759483 -0.99833941 0.052867837 -0.022879153 0.045703445
2.4851325 -0.3974275 0.52570856 12497590 -0.96762991 -0.24881487 -0.042232312 0.052215077
2.5036099 -0.38096178 0.5289768 12431793 -0.98196673 -0.090912715 -0.16575983 0.063501231
2.5017436 -0.37075937 0.52183211 12560560 -0.9958092 0.035403255 -0.084324844 0.028550716
2.4857516 -0.35967547 0.52617699 12628398 -0.97367465 0.11472873 -0.19696447 0.043428455
2.5020835 -0.35227871 0.52179265 12758450 -0.99266684 0.11879168 0.022386968 0.034347169
2.4860613 -0.34079945 0.52641124 12955829 -0.98402447 -0.039003566 -0.17370871 0.026265368
2.5024233 -0.33379811 0.52175319 12562613 -0.9987582 0.047800235 -0.014043272 0.032254618
2.486371 -0.32192343 0.52664542 13283517 -0.99189222 -0.056161821 -0.1139988 0.038005564
2.5027633 -0.31531745 0.52171379 12561334 -0.99784094 0.06405843 -0.014493197 0.026035041
2.4866805 -0.30304742 0.52687967 12692918 -0.99514461 0.097562104 0.012994998 0.041643608
2.5031033 -0.29683682 0.52167434 12693172 -0.99677652 0.060930613 0.05219233 0.025241829
2.5034432 -0.27835616 0.52163494 12495541 -0.9902755 -0.081477948 0.11276448 0.043074682
2.4872997 -0.26529542 0.5273481 12890547 -0.99812496 0.061208885 -0.00019341709 0.055949479
2.5037832 -0.25987554 0.52159548 12363443 -0.93503821 -0.32729468 0.13631487 0.030219642
2.4879189 -0.2275434 0.52781653 12364470 -0.9289155 -0.27154136 -0.25175667 0.041126508
2.4700401 -0.20749106 0.52500129 12560568 -0.98093814 0.040003765 -0.19015846 0.032126926
2.488538 -0.1897914 0.52828497 12298679 -0.97927094 0.15186763 -0.13403234 0.030731833
2.4888477 -0.17091538 0.52851921 12167604 -0.97553986 0.18464504 -0.11928201 0.02844307
2.4891572 -0.15203936 0.5287534 12363955 -0.99901551 0.041836329 0.014756482 0.034789074
2.4894669 -0.13316336 0.52898765 12364203 -0.99621022 0.0072574136 0.086675771 0.03530512
2.4897764 -0.11428734 0.52922189 12430263 -0.98931789 0.042547099 0.13942723 0.020368563
2.4900861 -0.095411338 0.52945608 12034731 -0.99722779 -0.040149901 0.062647648 0.049806684
2.4903955 -0.076535322 0.52969033 12232619 -0.95890534 -0.26662433 -0.097015798 0.018634235
2.4724989 -0.057579901 0.52686149 12034477 -0.96116298 -0.23099068 -0.15102653 0.019729581
2.4728062 -0.038841002 0.52709401 11772588 -0.97657555 -0.19101562 -0.099062204 0.021759957
2.4731135 -0.020102112 0.52732652 11837098 -0.99544299 -0.029528955 -0.090672225 0.027511474
2.4734209 -0.0013632154 0.52755904 11640735 -0.98912573 0.11025267 -0.097338691 0.024135675
2.4737282 0.01737568 0.52779156 11640735 -0.98095727 0.10714269 -0.1619979 0.031669866
2.4740355 0.036114577 0.52802408 11508646 -0.99668097 0.0057429643 -0.081203662 0.038899399
2.4746504 0.073592365 0.52848911 11508134 -0.9968676 -0.061581206 -0.049626794 0.055319835
2.4749577 0.092331253 0.52872163 11705000 -0.96553576 -0.25837556 -0.031349231 0.065247312
2.4580514 0.10997969 0.52604693 11639971 -0.95447612 -0.28661066 0.082642086 0.043861073
2.4755723 0.12980905 0.52918667 11836835 -0.96496475 -0.2604706 0.031592462 0.04293767
2.4586618 0.14719847 0.52650875 11442340 -0.98509502 0.15236966 0.079820916 0.041717969
2.458967 0.16580787 0.52673966 11506851 -0.96385372 0.2588698 0.063028298 0.031030659
2.4764943 0.18602571 0.52988422 11376284 -0.9337703 0.35542765 0.04176433 0.022321446
2.4607983 0.2774643 0.52812517 10915486 -0.95533317 0.041350186 -0.29262385 0.05811375
2.5139811 0.29454374 0.52041221 10783898 -0.96027064 0.061206508 -0.27227569 0.054517873
2.5143211 0.31302434 0.52037275 10653076 -0.93658143 -0.22218116 -0.27101812 0.048864339
1.9722055 0.81873322 0.524468 6902360 -0.36539108 -0.93046719 -0.026837165 0.031165758
2.457283 0.82423872 0.52864528 8284267 -0.99171412 0.085267834 -0.096085899 0.045671791
1.6431434 0.83172923 0.52996349 5184796 -0.35194606 -0.91901773 -0.17759633 0.034134716
1.674003 0.83616614 0.52534521 5317912 -0.13837798 -0.97816747 -0.1550481 0.026765278
1.9724487 0.83356428 0.52465206 6503728 -0.36540401 -0.93045968 -0.026922345 0.031161793
1.6209873 0.8440997 0.52453125 3279111 -0.47608647 -0.86665189 -0.14918523 0.030384544
1.6361682 0.84020042 0.52829134 3542534 -0.42507905 -0.88390565 -0.19498372 0.031858023
1.7404574 0.84554964 0.52867061 6107681 0.0043537058 -0.99997908 0.0047882176 0.0071034692
1.7661071 0.84599167 0.52163774 6172707 -0.029783022 -0.99934173 -0.020715138 0.0072893309
1.784309 0.84182233 0.52574545 6041898 -0.01487623 -0.9996357 -0.022522174 0.0047305608
1.8201436 0.84651637 0.52046758 5976875 0.039319113 -0.99895501 -0.023302374 0.00435615
1.8495752 0.84705341 0.52695495 6108467 -0.0056117494 -0.99806529 0.061920609 0.006005812
1.908621 0.84746796 0.52582055 6697762 0.026280161 -0.99923187 0.029069096 0.0071557071
1.9614582 0.84333819 0.52248251 6567732 -0.40436295 -0.91251552 -0.061693497 0.029776409
1.6211867 0.85625714 0.5246821 3475972 -0.52367276 -0.82232887 -0.22258042 0.035568208
1.733237 0.85130262 0.52184355 4860447 0.21141687 -0.9733178 -0.089193381 0.0044951425
1.8183262 0.85687226 0.52410418 5713701 0.037771169 -0.99918008 -0.014581313 0.0085257944
1.8467598 0.85753757 0.52885491 5780269 0.064361304 -0.9977482 0.018873496 0.0056130192
1.9020457 0.85815173 0.52496362 6304041 0.0081497943 -0.99949688 0.030653266 0.0090265442
1.9325377 0.85855669 0.52984995 5714214 -0.012541744 -0.99806213 0.060948484 0.0071481927
1.9939271 0.859487 0.52588439 5714473 -0.24022642 -0.96946567 -0.049270358 0.017499488
2.0158856 0.85480291 0.52927637 5716271 -0.13532071 -0.9908011 -0.0012098682 0.021054154
1.7766278 0.86072326 0.52934635 4992021 0.11840887 -0.99007553 -0.075695902 0.0075278231
1.8821504 0.86236185 0.52175272 5713951 0.016169447 -0.99961174 0.022692243 0.0093523161
1.9719626 0.86385107 0.52249324 5386279 -0.10787898 -0.99375486 0.028520923 0.019262545
2.5052814 -1.4560406 0.53782547 8811123 -0.93512505 -0.34779951 -0.067650884 0.06194837
2.4694917 -1.4169835 0.53190815 8876657 -0.98042303 -0.183275 -0.071979307 0.078392878
2.4698012 -1.3981076 0.5321424 8811636 -0.96103758 0.26374567 -0.082734741 0.1004985
2.4881673 -1.3889109 0.53545749 8941693 -0.95242411 0.28784782 -0.10016018 0.094582349
2.4884791 -1.3698976 0.53569341 9401978 -0.98464417 0.16611536 0.053679865 0.08288797
2.5068519 -1.3602895 0.53901356 9140338 -0.98777419 0.15576766 0.0062127188 0.060661323
2.4891028 -1.3318714 0.53616524 3612209 -0.95389462 0.29971808 -0.015941817 0.05778553
2.5074801 -1.3219891 0.53948879 10125441 -0.97795027 0.16301015 -0.13054129 0.049000543
2.5077941 -1.3028387 0.53972644 10257287 -0.97573233 0.060393371 -0.21047372 0.049608372
2.4706647 -1.2860619 0.53970504 9797252 -0.99460322 0.09905035 -0.030879825 0.046916772
2.5081084 -1.2836885 0.53996408 10390155 -0.9777869 -0.064269505 -0.19950518 0.038584027
2.4720149 -1.2126573 0.5395484 10588045 -0.97114581 -0.23276551 0.051924333 0.022416525
2.4723525 -1.1943061 0.53950924 10588564 -0.99019921 -0.12269701 -0.066715091 0.030378835
2.4726901 -1.1759551 0.53947008 10917527 -0.99664998 0.070224628 -0.041921824 0.030278554
2.4730277 -1.1576039 0.53943086 10916500 -0.96091622 0.27058583 -0.058509633 0.033609819
2.4733653 -1.1392528 0.53939176 11441311 -0.95499182 0.2937398 -0.04132244 0.025454994
2.5482872 -1.0490177 0.5300495 12429489 -0.97981399 0.082779706 -0.18196744 0.051026769
2.5486059 -1.0295857 0.53029066 12561073 -0.95542598 0.1941683 -0.22239584 0.030463342
2.5489247 -1.0101535 0.53053176 12363442 -0.95297158 0.081280224 -0.29195675 0.038618919
2.5492435 -0.99072134 0.53077286 12495282 -0.97872889 -0.17199504 -0.11183654 0.037616022
2.549562 -0.97128922 0.53101403 13020860 -0.97828162 -0.19618239 -0.066915162 0.032165024
2.5524304 -0.79640049 0.53318411 13679556 -0.98203808 0.18554731 0.034255873 0.078079417
2.5336194 -0.7715295 0.53025842 13219516 -0.92083186 -0.3094458 -0.23730138 0.075417414
2.4861922 -0.44190937 0.53790343 12825526 -0.98183131 -0.15826546 0.10468679 0.04524694
2.4865298 -0.42355829 0.53786427 12890551 -0.99865282 -0.017748011 0.048760403 0.054649778
2.4868672 -0.40520713 0.53782511 12364723 -0.99885958 0.04476488 -0.016604023 0.045469914
2.4875424 -0.36850482 0.53774679 12757688 -0.99172461 0.090970069 -0.090591609 0.031402439
2.48788 -0.35015368 0.53770763 12625587 -0.99048829 0.11973614 -0.067795679 0.033566698
2.5059276 -0.33382383 0.53990185 12627125 -0.99141091 0.099014781 -0.085443035 0.031941835
2.488555 -0.31345141 0.53762925 12429748 -0.99410516 0.067817941 -0.084591024 0.03126324
2.5066075 -0.29686254 0.53982294 12232367 -0.99761248 0.060566138 -0.033183638 0.034459163
2.5051692 -0.28589621 0.53015643 12694451 -0.98371124 0.17920493 0.014064372 0.039981876
2.5069475 -0.27838188 0.53978348 12627128 -0.99913502 0.01589676 0.038426906 0.054253612
2.4895678 -0.258398 0.53751183 12429495 -0.93376577 -0.35589403 0.037695486 0.04541488
2.5057929 -0.24786997 0.53062826 13219264 -0.95518303 -0.25808185 -0.14497966 0.055144608
2.472183 -0.23867305 0.53524065 12560562 -0.93937635 -0.32345939 0.11378101 0.050277263
2.472518 -0.2204514 0.53520179 12363443 -0.98698843 0.052080978 0.15212311 0.041134618
2.4905803 -0.20334454 0.53739429 12100783 -0.99152178 0.093725823 0.090000197 0.043763764
2.4909179 -0.1849934 0.53735512 12232108 -0.99661565 0.081283838 0.012257725 0.036483839
2.4912555 -0.16664226 0.53731596 12166064 -0.99328482 0.11383598 -0.020656155 0.041445412
2.4915929 -0.14829113 0.5372768 12034731 -0.99552602 0.090829171 -0.026038334 0.044405423
2.5096669 -0.13053676 0.53946793 12231344 -0.99472243 0.10055677 0.02038984 0.040935341
2.4922681 -0.11158885 0.53719842 12034731 -0.99946064 0.03281834 -0.0012028517 0.037154712
2.4926057 -0.093237713 0.53715932 11772066 -0.97675645 -0.20663512 -0.056998283 0.045263238
2.4929433 -0.07488656 0.5371201 12034729 -0.96394956 -0.25774992 -0.066077366 0.042784322
2.4755347 -0.056456663 0.53485179 11837098 -0.97868252 -0.17377773 -0.10946165 0.040603131
2.4758699 -0.03823502 0.53481293 11837350 -0.99408871 -0.091458686 -0.058506448 0.032391481
2.4762049 -0.020013381 0.53477407 11640232 -0.99862581 -0.0032606507 -0.052305687 0.030429279
2.4765401 -0.0017917451 0.53473514 11443101 -0.99434817 -0.10427127 -0.019981235 0.028195774
2.4768753 0.016429894 0.53469622 11508383 -0.99961227 -0.02695461 -0.0069872588 0.035281699
2.4772105 0.03465154 0.53465736 11376547 -0.98938221 0.14416325 -0.018433973 0.027393086
2.4775457 0.052873172 0.5346185 11442851 -0.97979242 0.19338763 -0.051069871 0.021345505
2.4925628 0.055596747 0.53132987 11639969 -0.99259096 -0.021822037 -0.11952837 0.041940369
2.4778807 0.071094811 0.53457958 11376799 -0.98655498 0.14705248 -0.071307719 0.035864178
2.4959812 0.090273708 0.53676766 11442081 -0.97258008 0.050501026 -0.22701894 0.050407656
2.4785511 0.1075381 0.53450179 11179681 -0.9645009 -0.056931667 -0.25786981 0.045397386
2.4788864 0.12575975 0.53446293 11377051 -0.94820511 -0.045827121 -0.31433588 0.038463634
2.4792216 0.14398138 0.53442401 10916246 -0.95610368 -0.10375915 -0.27404347 0.039633676
2.4973314 0.16367827 0.53661096 11114136 -0.95933557 -0.10798775 -0.26079491 0.037460275
2.4798918 0.18042465 0.53434622 10784147 -0.95295727 0.090332076 -0.28933126 0.064178579
2.480227 0.19864629 0.53430736 10784923 -0.94107747 0.25247785 -0.22500697 0.0670036
2.4768016 0.2047646 0.53011674 11114140 -0.95887363 0.27864876 -0.054002259 0.05424346
2.4983439 0.21873169 0.53649348 10849944 -0.95861959 0.20777999 -0.19461761 0.070220828
2.4953489 0.22548084 0.53343785 10981526 -0.92499065 0.045263398 -0.37728444 0.079107143
2.4986815 0.23708285 0.53645432 10783898 -0.97847831 -0.013145548 -0.2059308 0.051641069
2.4774163 0.24224243 0.53058177 11179168 -0.86895198 -0.15818456 -0.46893525 0.073582672
2.4812324 0.25331119 0.53419065 10588310 -0.98544282 -0.11167303 -0.12818581 0.03555695
2.4777236 0.26098132 0.53081429 10982550 -0.84250301 -0.31091848 -0.43990737 0.06914217
2.4993567 0.27378508 0.536376 10456206 -0.96281898 0.047978349 -0.26585287 0.057316594
2.4783385 0.29845911 0.53127933 11178141 -0.93826395 0.25892156 -0.2293914 0.064904526
2.4996943 0.29213622 0.53633684 10652312 -0.89788002 0.069972388 -0.43464392 0.049745761
2.4786458 0.31719801 0.53151184 10783381 -0.94605386 0.26035109 -0.19287135 0.047765046
2.5000317 0.31048736 0.53629768 10258316 -0.87513244 -0.13178308 -0.46559265 0.035390198
2.4825733 0.32619774 0.53403509 10324109 -0.89665353 -0.14870988 -0.41701064 0.035113003
2.4972067 0.33873689 0.53484315 10520979 -0.96117407 0.25500208 -0.10544347 0.060562067
2.4829082 0.34441939 0.53399622 10323346 -0.95182419 -0.028293405 -0.30533645 0.025576886
2.4792604 0.3546758 0.53197688 10586772 -0.97108716 0.23868309 0.004495997 0.061918467
2.4832435 0.36264104 0.53395736 10125968 -0.95171499 0.077936828 -0.29692516 0.024510155
2.4978259 0.37648895 0.53531158 10652561 -0.99914014 0.0011428578 -0.041445039 0.089385621
2.4835787 0.38086268 0.5339185 10192014 -0.95355839 0.045053583 -0.29781982 0.025231054
2.4981353 0.39536497 0.53554583 10717590 -0.99685848 0.070019849 -0.037018422 0.087788083
2.5017195 0.40224308 0.53610182 9994382 -0.97479427 0.041760232 -0.21916275 0.026878629
2.4822159 0.41409922 0.53325754 10257808 -0.97556931 -0.14820373 -0.16217329 0.06220125
2.4845841 0.43552759 0.53380179 9995144 -0.99047345 -0.061857391 -0.12302867 0.021818234
2.4987545 0.43311694 0.53601426 10060687 -0.94260627 -0.3169139 0.10516189 0.08188758
2.4635453 0.44494885 0.53020334 10323606 -0.98440385 -0.15730695 0.078762852 0.078994006
2.4849193 0.45374924 0.53376293 9995144 -0.99054378 -0.045127939 -0.12956314 0.026544344
2.4638505 0.46355826 0.53043425 10125967 -0.99013937 0.011882445 0.1395812 0.074990578
2.4852545 0.47197083 0.53372401 10060426 -0.99540126 0.094620124 -0.014944747 0.045960344
2.4814117 0.48584801 0.5336045 9929353 -0.99075466 0.13555914 -0.0053878613 0.044604257
2.4855897 0.4901925 0.53368509 9863045 -0.99827176 0.044247903 -0.038673908 0.046481449
2.4817193 0.50458694 0.53383702 9732485 -0.99880004 0.043403801 -0.022686789 0.038158987
2.5037448 0.5123499 0.53586686 9337992 -0.99720228 -0.06184049 -0.041993815 0.056445591
2.4841433 0.52498078 0.53383845 9796485 -0.98836499 -0.15062433 -0.021141147 0.041154504
2.4844646 0.54346108 0.53393531 9731460 -0.98735654 -0.14531726 -0.063324399 0.038639694
2.4701521 0.55900913 0.53144032 9468291 -0.98818493 -0.11350187 -0.10299475 0.051218126
2.4826412 0.56080365 0.53453457 9076103 -0.99925703 -0.027171178 -0.027334981 0.02337453
2.470485 0.57710886 0.53140169 9402496 -0.99864292 -0.024518952 -0.045947883 0.063797191
2.4829485 0.57954252 0.53476715 9403270 -0.99763536 -0.060118105 -0.033310361 0.036752023
2.4854283 0.59890187 0.5342257 9271684 -0.99893576 0.02162604 -0.040738523 0.039675772
2.4857495 0.61738217 0.53432256 9205377 -0.99181032 0.031749584 -0.12371059 0.029382987
2.4665976 0.6310429 0.53251249 9205628 -0.97094935 -0.14106299 -0.19328389 0.055186853
2.488271 0.63596553 0.53337401 9467519 -0.99869102 0.034884263 -0.037408475 0.02604883
2.486392 0.65434265 0.53451616 9074048 -0.99537897 0.011693458 -0.095309772 0.031848833
2.4867134 0.67282295 0.53461301 8942715 -0.98350859 -0.11147387 -0.14242351 0.029464709
2.4724824 0.68570739 0.53116989 8942458 -0.92388421 -0.33664086 -0.18196428 0.032889564
2.4847925 0.69197595 0.53616226 9075073 -0.98305005 0.042793866 -0.17827331 0.02887205
2.4678185 0.70548052 0.53343612 8614781 -0.98834896 0.0082856677 -0.1519794 0.039804086
2.4728155 0.70380718 0.53113127 8679545 -0.94975734 -0.18334092 -0.25366753 0.044156335
2.4731483 0.7219069 0.53109264 8810359 -0.9829365 -0.021100555 -0.18273094 0.042401779
2.4854074 0.72945368 0.53662729 8745341 -0.99702853 0.00823077 -0.076593027 0.046201319
2.4734814 0.74000669 0.53105402 8613241 -0.98507959 0.10331398 -0.13763876 0.027507018
2.4857147 0.74819255 0.53685981 8680826 -0.99319142 -0.076478571 -0.087874256 0.050881583
2.4738142 0.75810641 0.5310154 8350580 -0.99007529 0.094220966 -0.1042757 0.025667023
2.468734 0.76130873 0.53412884 8548478 -0.96333277 -0.25186378 -0.09249147 0.050457876
2.4690392 0.77991802 0.53435975 8679284 -0.97121716 -0.22847083 -0.067367278 0.064221047
2.4741471 0.7762062 0.53097677 8416617 -0.98457021 0.060774922 -0.16409749 0.024813324
2.4693444 0.79852742 0.53459066 8614006 -0.9927721 -0.10714861 0.054062575 0.044138294
2.4744802 0.79430592 0.53093815 8415350 -0.99436182 0.041708931 -0.097493701 0.047923192
2.4696498 0.81713682 0.53482163 8153455 -0.99764365 -0.023641922 0.064407118 0.020674938
2.474813 0.81240571 0.53089952 8546936 -0.9943952 0.084309079 -0.063798375 0.047220852
1.6593431 0.82796919 0.53397936 5056286 -0.20820774 -0.96924442 -0.13120519 0.019259846
1.6286619 0.83563334 0.53839791 2953478 -0.46684387 -0.87652063 -0.1173388 0.032123763
1.9732947 0.83336663 0.53946096 6306353 -0.35309696 -0.93556929 0.0057236841 0.032762405
2.469955 0.83574623 0.53505254 8350329 -0.98895478 -0.14663048 0.021633973 0.037220191
1.6216809 0.8439377 0.53667045 2886155 -0.50285363 -0.85425287 -0.13187212 0.033119936
1.7158034 0.84524465 0.53555596 5713448 0.12921877 -0.98995447 0.057382453 0.0055295811
1.7668636 0.84581494 0.53487974 6237484 -0.039387219 -0.99921781 -0.0035320884 0.006112495
1.7850734 0.84164375 0.53912437 6173726 -0.00018678549 -0.99980301 0.019848207 0.0053343098
1.8209236 0.84633416 0.53412032 5975842 0.024015665 -0.99971026 -0.0016567269 0.0056012343
1.8789995 0.84714854 0.53343683 6306098 -0.032902148 -0.99752969 0.06206489 0.0050506503
1.9410833 0.84807658 0.53273576 5779999 -0.22645955 -0.97261477 -0.052312639 0.036153361
1.9622995 0.84314167 0.53720766 5979445 -0.34338263 -0.93912816 0.011257419 0.032732602
2.4754789 0.84860516 0.53082228 8152437 -0.98522753 0.15928085 -0.062899128 0.04108768
1.6218803 0.85609514 0.53682131 3606795 -0.51866215 -0.84481061 -0.1314711 0.031433053
1.7849013 0.85207754 0.53083265 5648662 0.068811938 -0.99692988 -0.037359398 0.0081616063
1.9860779 0.85471445 0.53845292 5517348 -0.17104475 -0.98525065 0.004991774 0.025845483
2.4702601 0.85435563 0.53528345 8152952 -0.9186852 -0.33594981 -0.20773837 0.056442577
1.8943007 0.86689419 0.5367552 5910827 0.011241998 -0.99984282 0.013710978 0.0088314004
1.9746826 0.8638311 0.53657967 5189147 -0.16807221 -0.98562759 0.017032377 0.025049051
2.4532645 0.86656523 0.53254116 8153718 -0.93106902 -0.21974188 -0.29124552 0.056325532
2.4758117 0.866705 0.53078365 7823985 -0.99730831 0.054304905 -0.049265746 0.030405633
2.4535675 0.88504505 0.53277045 7955312 -0.98141706 -0.022611789 -0.19055007 0.078489609
2.4929633 0.89106852 0.53282958 7758445 -0.98624897 -0.13460195 -0.095892332 0.044946223
2.4538705 0.90352511 0.53299975 7757679 -0.99547261 -0.076478004 -0.056439377 0.10124283
2.4764776 0.90290445 0.53070641 8151400 -0.98848128 -0.14920503 -0.025351273 0.066752367
2.4541738 0.92200494 0.53322905 7823987 -0.92990917 -0.33841041 -0.14403977 0.062334515
2.4768107 0.92100412 0.53066778 7823215 -0.99861932 -0.049611617 0.0172676 0.066369034
2.4371672 0.93356711 0.53047878 7822698 -0.95246416 -0.20906615 -0.22159266 0.041099221
2.4771435 0.9391039 0.5306291 7561066 -0.99494523 0.077676512 0.063642569 0.035937604
2.4374683 0.95191753 0.53070647 7625569 -0.98101717 0.023552218 -0.19248568 0.038705893
2.4774766 0.95720387 0.53059047 7692140 -0.99887288 0.03910242 0.026907237 0.025427412
2.4377692 0.97026789 0.53093415 7691878 -0.97905099 0.13828687 -0.14945222 0.035724387
2.4778094 0.97530353 0.53055185 7560805 -0.99322456 0.11352059 0.024860563 0.02452462
2.4553862 0.99592459 0.53414625 7363685 -0.98634291 0.1629388 -0.024055736 0.034243386
2.4781423 0.99340332 0.53051323 7100516 -0.99122941 0.11332979 0.067975312 0.026607433
2.4556892 1.0144044 0.53437555 7230298 -0.98412257 0.17742147 -0.0049345382 0.029855138
2.4784753 1.011503 0.5304746 6838360 -0.98580134 0.10622748 0.13004415 0.026853157
2.4956448 1.0368416 0.53251845 7099223 -0.99259377 0.118433 0.027042285 0.060368765
2.5037837 -1.4152334 0.54443884 8483188 -0.98930144 -0.048887208 0.13745096 0.02692982
2.5041261 -1.3966231 0.54439908 8615025 -0.98883349 -0.11583762 0.093754768 0.033802632
2.5044684 -1.378013 0.54435933 9336438 -0.98399633 -0.1778833 0.010431529 0.031612247
2.5048108 -1.3594029 0.54431963 9075323 -0.96412182 -0.26158887 0.04517122 0.028636752
2.4875712 -1.3317783 0.54203165 8157054 -0.94511908 -0.32398295 -0.042248741 0.033097483
2.4879112 -1.3132976 0.54199225 9399927 -0.99122471 -0.13190576 0.0086330185 0.041594159
2.488591 -1.2763364 0.54191339 9994884 -0.98866993 0.15003991 -0.0044481014 0.046305679
2.5084224 -1.2645383 0.54020166 10587535 -0.98837465 -0.083100513 -0.12731846 0.034394991
2.4889309 -1.2578557 0.54187393 10324620 -0.99599546 0.014850334 0.088162631 0.055071145
2.5087366 -1.245388 0.54043931 10456459 -0.99511421 0.059127599 -0.079068437 0.029210558
2.4892709 -1.2393751 0.54183447 10128010 -0.9677099 -0.24164782 0.07172104 0.032013617
2.5090506 -1.2262378 0.54067695 10523028 -0.98531002 0.1643163 -0.046522412 0.029768202
2.5093646 -1.2070876 0.54091454 10850964 -0.99615908 0.081013277 -0.033226229 0.021719787
2.5096788 -1.1879374 0.54115218 11309727 -0.92457229 0.28811693 -0.2493085 0.075206317
2.5099928 -1.1687871 0.54138982 11442081 -0.87541431 0.27611169 -0.39675182 0.058763593
2.5283926 -1.1575335 0.54473025 11573146 -0.87170261 0.14328197 -0.46862024 0.049108226
2.5287089 -1.1382462 0.54496962 11769763 -0.92639446 -0.053063881 -0.37279704 0.069121137
2.4913106 -1.1284913 0.54159784 11245465 -0.89036942 0.41884398 -0.17835939 0.056726087
2.4916503 -1.1100106 0.54155838 11377308 -0.87771857 0.30646122 -0.36836344 0.062396023
2.5109351 -1.1113364 0.54210269 11771046 -0.94444329 -0.050846912 -0.32471767 0.068436682
2.4919903 -1.09153 0.54151893 11312798 -0.97222602 0.10518405 -0.20907617 0.051948909
2.5112493 -1.0921861 0.54234028 11772070 -0.97439063 -0.0074717267 -0.2247382 0.065355368
2.5099454 -1.0802507 0.54372388 11640220 -0.96090257 0.094596498 -0.26022667 0.050273284
2.5296581 -1.0803841 0.54568756 11902891 -0.9345997 0.18308803 -0.30496252 0.065251008
2.5299745 -1.0610968 0.54592687 11968684 -0.9003619 0.24936606 -0.35660216 0.054720707
2.4926703 -1.0545688 0.54144007 12165286 -0.94020391 -0.033904739 -0.33892053 0.038454995
2.5302906 -1.0418096 0.54616624 12034729 -0.92508191 0.13289279 -0.35575697 0.052586589
2.4930103 -1.0360882 0.54140061 11969188 -0.89452702 -0.15699866 -0.41853663 0.027399918
2.530607 -1.0225221 0.54640555 12165800 -0.90883201 0.084829561 -0.40844613 0.044174004
2.49335 -1.0176075 0.54136121 12034980 -0.82316488 0.076686621 -0.56259996 0.047107179
2.5309234 -1.0032349 0.54664487 12297911 -0.9012298 0.11913627 -0.41664293 0.034938268
2.49369 -0.99912691 0.54132175 12100773 -0.80573869 0.14569667 -0.57407117 0.043046724
2.511657 -0.9872002 0.54352528 11969198 -0.82643068 0.22745954 -0.51504809 0.049458012
2.49437 -0.96216565 0.54124284 12429235 -0.84350723 0.237377 -0.48181704 0.057607114
2.5315561 -0.96466005 0.54712349 12559794 -0.98524833 -0.10470674 -0.13535976 0.044135593
2.5123417 -0.94997984 0.54344583 12232110 -0.90534455 0.2035884 -0.37269711 0.044544604
2.5318723 -0.9453727 0.54736286 12626353 -0.94006991 -0.34065691 -0.014880273 0.021715412
2.5126839 -0.93136972 0.54340613 12692657 -0.89925444 0.24680425 -0.36114979 0.040346805
2.5321887 -0.92608535 0.54760218 12692918 -0.94864929 -0.31617326 0.0099537866 0.018355889
2.5130262 -0.9127596 0.54336643 12497072 -0.95583624 0.058228832 -0.28807372 0.023085248
2.51439 -0.90068376 0.54471654 12890046 -0.97089726 -0.22600009 -0.079262324 0.035090584
2.5133686 -0.89414948 0.54332674 12627895 -0.96510738 -0.038205892 -0.25905234 0.02037935
2.5147042 -0.88153356 0.54495418 12825536 -0.99004585 -0.082889795 -0.11374789 0.036651079
2.513711 -0.87553936 0.54328698 12693690 -0.96468365 -0.015836261 -0.2629348 0.020024221
2.5150182 -0.86238331 0.54519176 12759740 -0.99200183 0.011535987 -0.12569563 0.023818053
2.5140533 -0.85692912 0.54324722 12496058 -0.99397701 -0.10465322 -0.03251718 0.048282165
2.5153325 -0.84323311 0.54542941 12891580 -0.98293227 0.15219615 -0.10334645 0.038506392
2.5143955 -0.838319 0.54320753 12692921 -0.99402785 0.047015842 0.098479442 0.046385255
2.5156465 -0.82408285 0.54566705 13153469 -0.92860281 0.37051484 0.020385489 0.076422274
2.5147378 -0.81970888 0.54316783 12562615 -0.98398399 0.087250583 0.15544419 0.033172093
2.5340867 -0.81036127 0.54903811 13087678 -0.96499515 0.20715542 -0.16084474 0.096394867
2.5150802 -0.80109876 0.54312813 12759228 -0.9962045 -0.081121862 0.031559393 0.058806699
2.5344031 -0.79107392 0.54927742 13152958 -0.91701418 -0.18597429 -0.35284358 0.085636407
2.5154226 -0.78248864 0.54308838 12628154 -0.98127067 -0.16295652 -0.10272837 0.030841473
2.5165887 -0.76663208 0.54637992 13021885 -0.82399631 -0.33130297 -0.45963943 0.044820383
2.4981091 -0.75887859 0.54080898 12628154 -0.99698043 0.049555928 -0.059785023 0.044901054
2.4987698 -0.74246448 0.54347885 13154241 -0.91551626 -0.21579629 -0.3395026 0.061595179
2.5161071 -0.74526829 0.54300892 12694201 -0.99098092 0.13374758 0.0082708905 0.047438338
2.5168333 -0.7274949 0.54491222 12891329 -0.99459386 0.011238735 -0.10323167 0.05614309
2.4993935 -0.70443815 0.54395068 13087678 -0.97867334 0.13883772 -0.15140234 0.058435384
2.5167918 -0.70804793 0.54292953 12562862 -0.9937976 -0.0072575752 0.11096705 0.033535343
2.4997053 -0.6854251 0.54418659 13022400 -0.98690093 0.024172364 -0.15950632 0.04478145
2.5171342 -0.68943781 0.54288983 12693435 -0.99782854 -0.025566608 -0.060701475 0.05840987
2.5178177 -0.67085433 0.54520905 12759482 -0.99021554 -1.5510099e-05 -0.13954626 0.056066416
2.518146 -0.65197414 0.54530799 12825535 -0.98745918 -0.13924965 -0.07438992 0.05447254
2.5005648 -0.62894988 0.54271364 13153728 -0.99625206 -0.081756033 -0.028247206 0.061542664
2.5008287 -0.61103344 0.54049349 13022653 -0.98470777 -0.06844262 0.16020687 0.027351514
2.5191014 -0.61343026 0.54828089 13220034 -0.98598886 0.14243022 -0.086831257 0.09865357
2.5011685 -0.59255284 0.54045403 12693435 -0.98230183 0.1601795 0.097086303 0.022797896
2.5194154 -0.59427994 0.54851854 12957373 -0.97033685 -0.12613879 -0.20624124 0.10535955
2.5015426 -0.57270932 0.54300833 13088448 -0.98334515 -0.13959144 -0.11638916 0.042710219
2.5195303 -0.55916685 0.54261178 12891069 -0.99974024 -0.012922336 -0.018774807 0.030572465
2.4837327 -0.5486871 0.54268229 13220030 -0.95619953 0.026064347 -0.29155308 0.031058967
2.5021884 -0.53711087 0.54033566 13087678 -0.99689937 0.0028525104 -0.078635775 0.03858161
2.4840424 -0.52981108 0.54291654 13088705 -0.94732225 0.021388445 -0.31956711 0.032987494
2.5025201 -0.51646864 0.54330307 12956606 -0.98339039 0.10042154 -0.15119123 0.030838639
2.5028682 -0.50014961 0.5402568 13153472 -0.99930716 0.025175847 0.027411073 0.024389103
2.4846616 -0.49205905 0.54338497 13415877 -0.9667328 0.17221855 -0.18912587 0.02991868
2.5032082 -0.48166898 0.5402174 12956092 -0.9827832 -0.17900124 0.045780852 0.035195071
2.5031357 -0.47628078 0.54678178 13022912 -0.98606139 0.11663765 -0.11865276 0.036196277
2.5035481 -0.46318832 0.54017794 13220032 -0.96398646 -0.25217149 0.084496722 0.039032049
2.5034475 -0.45726764 0.54701769 13152705 -0.99226773 0.11808851 -0.038207632 0.039037134
2.5037591 -0.43825457 0.54725361 13283517 -0.98652107 -0.13335836 -0.094824791 0.031267427
2.504071 -0.4192414 0.54748952 13613509 -0.95494175 -0.27525726 -0.11099443 0.046167362
2.4862094 -0.39767903 0.54455608 12430263 -0.96176541 -0.23988132 -0.13215238 0.055817038
2.5049078 -0.38926575 0.54002017 12693172 -0.99681509 -0.050814811 -0.061462581 0.040934358
2.4865191 -0.37880301 0.54479033 12560822 -0.98828238 -0.066562958 -0.13735825 0.060394499
2.4868286 -0.359927 0.54502451 12692669 -0.99108911 0.031623296 -0.1293923 0.039495453
2.4871383 -0.34105098 0.54525876 12627644 -0.99950325 0.02690956 -0.016405616 0.050602723
2.487448 -0.32217497 0.54549295 12693690 -0.99177808 0.082177319 -0.098098308 0.043032896
2.4877574 -0.30329895 0.54572719 12824255 -0.99648458 0.078550003 -0.029128702 0.036915042
2.506254 -0.28614956 0.54914099 12430265 -0.98259878 0.12228703 -0.13980594 0.04291109
2.4883766 -0.26554695 0.54619563 12692921 -0.99143177 -0.065342814 -0.11310767 0.057893235
2.4886863 -0.24667095 0.54642987 12430518 -0.91335034 -0.35384291 -0.20146051 0.031677458
2.4708018 -0.22647966 0.54347944 12495793 -0.95029908 -0.26538563 -0.16279498 0.040199626
2.4711092 -0.20774075 0.54371196 12298160 -0.98552209 0.032273263 -0.16644689 0.049361624
2.4714165 -0.18900187 0.54394448 12626614 -0.96103144 0.20908168 -0.18084088 0.026260685
2.4899247 -0.17116691 0.54736674 12429746 -0.96235609 0.19832011 -0.18584941 0.025162544
2.4902341 -0.1522909 0.54760092 12297137 -0.96914232 0.14952822 -0.19597088 0.026822885
2.4905438 -0.13341489 0.54783517 12495280 -0.99686146 0.077450618 -0.016389968 0.041251034
2.4908533 -0.11453887 0.54806942 11837358 -0.99897516 0.017169749 -0.041880339 0.048081774
2.491163 -0.095662862 0.5483036 12559792 -0.9690631 -0.22493662 -0.10158914 0.02173616
2.4914725 -0.076786853 0.54853785 12165550 -0.96112829 -0.23147371 -0.15050711 0.020116016
2.473568 -0.057829604 0.54557216 11968938 -0.96935266 -0.2265816 -0.094953746 0.021028303
2.4738753 -0.039090704 0.54580468 11772838 -0.99530613 -0.096467279 -0.0077272244 0.020615222
2.4741826 -0.020351812 0.5460372 11837609 -0.99821389 0.01567032 0.05765032 0.00086448656
2.4744899 -0.0016129169 0.54626971 11771557 -0.99821156 0.01565266 0.057694856 0.0008645198
2.4747972 0.017125979 0.54650223 11640484 -0.99555457 0.06910108 -0.064000525 0.020035563
2.4751046 0.035864875 0.54673475 11574176 -0.99837434 0.040765319 -0.039836302 0.022919485
2.4754121 0.054603763 0.54696727 11573413 -0.99953377 0.014176768 0.027040875 0.014611824
2.4757195 0.073342659 0.54719979 11573665 -0.99815106 -0.032528527 -0.051346693 0.035151325
2.4760268 0.092081547 0.5474323 11705253 -0.96353215 -0.24623106 -0.10476691 0.042148344
2.4763341 0.11082046 0.54766482 11508637 -0.95759034 -0.28459632 -0.045008089 0.040644344
2.4594181 0.12834109 0.54485923 11573663 -0.98090029 -0.19204383 0.030885207 0.027282028
2.4597232 0.1469505 0.54509014 11638690 -0.98190057 0.1524096 0.11243928 0.04085103
2.4600284 0.1655599 0.54532105 11310754 -0.95876861 0.25633833 0.12269199 0.028259404
2.4775634 0.18577601 0.54859489 11048347 -0.95782435 0.28289187 0.050446887 0.033282559
2.4778707 0.20451491 0.54882741 11179679 -0.98484331 -0.0023960799 -0.17343026 0.064064093
2.478178 0.2232538 0.54905993 11047832 -0.94885498 -0.13998641 -0.28298086 0.044425815
2.4612494 0.23999751 0.54624468 10784411 -0.96238542 -0.21642764 -0.16423561 0.057753764
2.4615545 0.25860694 0.54647559 11047836 -0.95237136 -0.23165277 -0.1983075 0.073820367
2.4618597 0.27721635 0.54670656 10849176 -0.9945634 0.074948467 -0.072294228 0.048372988
2.4621651 0.29582575 0.54693747 10849176 -0.95302773 0.21158952 -0.21672125 0.037896175
2.4735842 0.55898398 0.5492149 9666183 -0.99631113 -0.07745675 0.036941677 0.050419316
2.473917 0.57708371 0.54917628 9337214 -0.9914251 -0.019586189 0.12920028 0.054729097
2.4742498 0.59518349 0.54913765 9074042 -0.98309535 0.1797225 0.034976959 0.033934459
2.4745829 0.61328316 0.54909897 8942197 -0.98960429 0.09747003 -0.10575004 0.048722889
2.4755816 0.66758251 0.5489831 8418430 -0.93411952 -0.32444289 -0.14885435 0.033544339
2.4759145 0.68568224 0.54894447 8746357 -0.90051186 -0.39822337 -0.17463264 0.027500181
2.4583769 0.69842184 0.546561 8810621 -0.96201921 -0.21106638 -0.1731188 0.043114848
2.4587073 0.71639216 0.54652274 8612728 -0.99496013 -0.0042279712 -0.10018242 0.035840582
2.4769135 0.73998153 0.5488286 9073783 -0.97657758 0.10399035 -0.18836765 0.030342035
2.4772463 0.75808126 0.54878998 8350321 -0.97733939 0.099088117 -0.18705443 0.030834187
2.4775791 0.77618104 0.54875135 8482168 -0.99288678 0.064938463 -0.099794105 0.024935171
2.4779122 0.79428077 0.54871273 8415863 -0.99241871 0.092759594 -0.080627561 0.044509474
2.478245 0.81238055 0.54867411 8481396 -0.99278736 0.11731721 0.024698764 0.044826824
1.6600531 0.82780337 0.54640746 5515295 -0.22857982 -0.95216405 -0.20281714 0.015579589
1.6520519 0.83590758 0.54441601 5513504 -0.34754094 -0.91399974 -0.20933194 0.028286025
2.4785781 0.83048028 0.54863548 8546661 -0.99261343 0.10248077 0.064933337 0.043892104
1.6223744 0.84377575 0.54880953 3345155 -0.50345087 -0.85630292 -0.11525057 0.041949384
1.7165378 0.8450731 0.54841006 5648421 0.13965797 -0.98931736 0.04179582 0.00596104
1.7412026 0.8453756 0.54171491 5975844 -0.0096774129 -0.99966633 -0.023950737 0.0062148739
1.7676201 0.84563822 0.54812175 6107178 -0.014442682 -0.99942672 0.030621585 0.0063733943
1.8217036 0.84615195 0.54777306 6369074 0.04279162 -0.99560863 0.083260618 0.0060318289
1.8503678 0.84686828 0.54082829 6240550 0.017335288 -0.9985081 0.051780045 0.0047644824
1.8798047 0.84696048 0.54753071 6109222 -0.020412648 -0.99809915 0.058150869 0.0051786113
1.9094392 0.84727681 0.54014254 6108711 0.003406463 -0.99775553 0.066875279 0.0053919833
1.9306707 0.84274352 0.54477918 5450789 -0.15764047 -0.98684514 0.035863582 0.017223338
1.9964105 0.8449626 0.54015887 5780534 -0.1765155 -0.98401588 0.023560058 0.02441702
2.4789109 0.84858 0.54859686 8282984 -0.98551929 0.11925079 0.12054449 0.032572467
1.6153885 0.85197413 0.54702747 3477001 -0.58787441 -0.8045066 -0.084692694 0.033255205
2.4370103 0.85992086 0.54789072 8218996 -0.96068066 -0.26387686 -0.086381033 0.055949923
1.8399743 0.86623037 0.54034376 6106912 0.081732951 -0.99652219 -0.01622596 0.0053558531
1.8588724 0.86213863 0.54365528 6042423 0.040568031 -0.99888241 0.024251755 0.0064962315
1.9152839 0.86311328 0.54028332 5780005 -0.0043105958 -0.99957389 0.02887034 0.0072367569
1.9564331 0.86834621 0.54713631 5780256 -0.1264852 -0.9915787 0.027805505 0.024004359
2.4792438 0.86667985 0.54855824 7627374 -0.99906057 -0.014705105 -0.040764168 0.03880604
2.4373112 0.87827134 0.54811847 7890031 -0.99984527 -7.9742873e-05 -0.017593006 0.067699887
2.4795768 0.88477945 0.54851961 7759215 -0.99014258 -0.094613396 -0.10327644 0.046545736
2.4799097 0.9028793 0.54848099 8282483 -0.98113871 -0.13435733 -0.13897854 0.043546248
2.4802427 0.92097896 0.54844236 7756650 -0.98081559 -0.080276407 -0.17764172 0.035756916
2.4382141 0.93332261 0.54880154 7560805 -0.9702189 -0.24038349 -0.02985136 0.063184597
2.4805756 0.93907875 0.54840368 7560815 -0.98924387 0.003104355 -0.14624278 0.019097798
2.4385152 0.95167303 0.54902923 7625836 -0.99506545 0.016567972 -0.097827166 0.055234585
2.4809086 0.95717871 0.54836506 7691876 -0.99282044 0.080797955 -0.088200778 0.024165351
2.4812415 0.97527838 0.54832643 7231842 -0.99276125 0.10807905 -0.052384082 0.022307163
2.439117 0.98837376 0.54948461 7166560 -0.97180659 0.22974776 0.052990962 0.035650454
2.4815743 0.99337816 0.54828781 7756126 -0.97675365 0.21155006 -0.034625083 0.022002434
2.4394181 1.0067242 0.54971236 7033697 -0.96953446 0.24103789 0.043632187 0.030578455
2.4819074 1.0114778 0.54824919 6969179 -0.97256333 0.23263539 -0.0012030303 0.024207862
2.4822402 1.0295777 0.54821056 7034461 -0.97818947 0.17563568 0.11089404 0.020837242
2.4886281 -1.4271903 0.55397016 8616311 -0.94379872 -0.3299076 0.020122631 0.1026728
2.48894 -1.4081773 0.55420607 8878448 -0.99042434 0.11859646 -0.070671856 0.11103939
2.5073164 -1.3988452 0.55765969 9074806 -0.95765293 0.28782472 -0.0076088198 0.086960196
2.5076303 -1.3796948 0.55789727 9271411 -0.94362777 0.33082455 -0.011035913 0.075649463
2.4898756 -1.3511379 0.55491382 9664374 -0.96127564 0.27525714 0.013516493 0.051678628
2.5082586 -1.3413944 0.55837256 8088703 -0.98723489 0.14949799 -0.054933466 0.055140436
2.5085726 -1.3222443 0.55861014 10651015 -0.99565071 0.084614076 -0.038989052 0.048687499
2.4738069 -1.3044385 0.5577656 4793134 -0.97855633 -0.044005767 -0.20122375 0.048122313
2.5088866 -1.3030939 0.55884778 10126722 -0.99300689 -0.0065261042 -0.11787677 0.05957051
2.5092008 -1.2839438 0.55908543 10259080 -0.97933996 -0.091303058 -0.18043564 0.040232319
2.4914348 -1.2560723 0.55609345 10522768 -0.98113549 -0.0037659586 -0.19328472 0.034392364
2.509829 -1.2456433 0.55956066 10456457 -0.98643136 0.059281625 -0.15309766 0.035849635
2.4927752 -1.2394009 0.55998302 10128010 -0.98095632 -0.1940247 -0.0089030266 0.039048828
2.510143 -1.226493 0.5597983 10719128 -0.97019774 0.21800721 -0.10577892 0.028273461
2.4754946 -1.2126828 0.5575698 10654354 -0.96029377 -0.25893429 0.10387041 0.017791195
2.4758322 -1.1943316 0.55753064 10522517 -0.97443014 -0.15573677 0.16196311 0.02174007
2.4761698 -1.1759806 0.55749142 10916509 -0.9853971 0.0084686857 0.17006144 0.01409891
2.4765074 -1.1576294 0.55745232 10981764 -0.97964281 0.19163281 0.059807107 0.036906786
2.476845 -1.1392783 0.5574131 11441048 -0.94302762 0.33259913 -0.0087651471 0.029924821
2.4948149 -1.128517 0.55974638 11048596 -0.96106029 0.27429819 -0.033521969 0.026651194
2.4951546 -1.1100364 0.55970693 11114905 -0.94489902 0.29794091 -0.13563567 0.041515164
2.4954946 -1.0915557 0.55966747 11509147 -0.97382891 0.1245129 -0.1901416 0.039488267
2.4958346 -1.0730751 0.55962801 11443870 -0.98461342 0.030313572 -0.1720974 0.039957788
2.4961746 -1.0545945 0.55958861 11575209 -0.97535467 -0.046083175 -0.21577695 0.038991325
2.4965146 -1.036114 0.55954915 11706023 -0.9358725 -0.26718339 -0.22968629 0.035627931
2.4792078 -1.0108203 0.55713898 11641252 -0.93624437 0.034440026 -0.34965748 0.054513451
2.4795454 -0.99246913 0.55709982 11641259 -0.92640531 0.14735062 -0.34649828 0.057987459
2.5503519 -0.99098027 0.55017567 12232108 -0.90632868 0.10905076 -0.40825999 0.03944445
2.4975343 -0.98067206 0.55943084 11707304 -0.81174928 0.36183211 -0.4584111 0.055617116
2.4978743 -0.9621914 0.55939138 11904681 -0.88305217 0.27869233 -0.37755734 0.048462722
2.5016134 -0.75890434 0.55895752 12825276 -0.99221092 0.037984919 -0.11863613 0.052516371
2.5019534 -0.74042374 0.55891812 12628404 -0.96068299 0.21910131 -0.17053692 0.053712059
2.4817135 -0.73769867 0.55918777 13153472 -0.9449476 -0.11569761 -0.30608511 0.053716619
2.5029731 -0.68498182 0.55879974 12890300 -0.99716723 0.015356272 -0.073632956 0.082794324
2.503993 -0.62953985 0.55868143 13087676 -0.9675591 -0.25141981 0.024850979 0.036869716
2.504333 -0.61105919 0.55864203 13219516 -0.99277711 -0.094865456 0.073445201 0.038741052
2.5046728 -0.59257859 0.55860257 12956090 -0.99203366 0.11960298 0.039550435 0.025359217
2.5050128 -0.57409793 0.55856311 13022137 -0.99195325 0.043208808 0.11900344 0.022248136
2.5053527 -0.55561727 0.55852365 12891326 -0.99521774 -0.061013699 0.076281719 0.03150497
2.5056927 -0.53713661 0.5584842 12759741 -0.99683958 -0.034118745 0.07174018 0.032877546
2.5060327 -0.51865596 0.5584448 12891327 -0.99547863 0.067426376 -0.066903055 0.032550801
2.5063725 -0.5001753 0.55840534 13218751 -0.99567425 0.090474106 -0.021148667 0.031997826
2.5067124 -0.4816947 0.55836594 12890038 -0.98928481 -0.12511384 0.075247154 0.03285123
2.5070524 -0.46321404 0.55832648 12825272 -0.95671743 -0.25872499 0.1332414 0.039772999
2.4896719 -0.44193491 0.55592489 12694451 -0.96345478 -0.26786983 0.00076039135 0.051863503
2.5077322 -0.42625275 0.55824757 12693688 -0.97067803 -0.13116437 -0.20144528 0.0583243
2.4903469 -0.40523267 0.55584651 12693947 -0.99929506 0.020578174 -0.031401053 0.048563089
2.4906845 -0.38688153 0.55580735 12562100 -0.99932182 0.03679613 -0.0013754814 0.034868728
2.4910221 -0.36853036 0.55576819 12561334 -0.99064875 0.13320048 0.029542595 0.034051143
2.4913597 -0.35017923 0.55572903 12232369 -0.99873227 0.047964059 -0.015276656 0.032534957
2.5094318 -0.33384955 0.55805039 12365236 -0.99780768 0.042328265 -0.050874192 0.032745704
2.4920347 -0.31347695 0.55565071 12364723 -0.99120325 0.054788787 -0.12047539 0.045077562
2.4923723 -0.29512581 0.55561149 12297136 -0.99178928 0.013118142 -0.1272085 0.051388219
2.5104518 -0.2784076 0.55793202 12429236 -0.98687673 0.13102503 -0.094376117 0.055212248
2.5107918 -0.25992697 0.55789256 12428723 -0.96759313 -0.24249451 0.070427276 0.06324055
2.4933851 -0.24007235 0.55549407 12559282 -0.9341473 -0.33757406 0.11581311 0.067409158
2.4759731 -0.22047678 0.55309594 12232369 -0.99243116 0.049746409 0.11227506 0.056544952
2.4763083 -0.20225513 0.55305707 11904681 -0.99583602 0.015539238 0.089828834 0.061768081
2.4943976 -0.18501894 0.55537653 12035505 -0.99898493 -0.044669274 0.0058149844 0.05024435
2.4769788 -0.16581187 0.55297929 11706793 -0.9955554 0.0049337381 -0.094048604 0.035084881
2.4950726 -0.14831667 0.55529821 12100271 -0.98299038 0.13263312 -0.12703668 0.039896194
2.4954102 -0.12996553 0.55525905 11968425 -0.98233187 0.16187562 -0.093917251 0.039076116
2.4957478 -0.11161439 0.55521989 11837609 -0.9954226 0.053722173 -0.079042874 0.041214261
2.4960854 -0.093263254 0.55518067 11508896 -0.98366839 -0.15884227 -0.084650517 0.038368303
