# .PCD v0.7 - Point Cloud Data file format
VERSION 0.7
FIELDS x y z rgb normal_x normal_y normal_z curvature
SIZE 4 4 4 4 4 4 4 4
TYPE F F F U F F F F
COUNT 1 1 1 1 1 1 1 1
WIDTH 541
HEIGHT 1
VIEWPOINT 0 0 0 1 0 0 0
POINTS 541
DATA ascii
2.5028768 0.043649957 0.33783412 3610657 -0.99477506 0.10198015 -0.0047567934 0.031348474
2.5147369 0.054102659 0.33599442 2819859 -0.97329074 0.16216996 -0.16249935 0.03955435
2.5050302 0.062003076 0.33803928 4135203 -0.99122739 0.11490471 0.065308258 0.035104558
2.4887047 0.079870462 0.33815908 2954014 -0.99582946 0.051743899 0.075141869 0.04787999
2.5154474 0.073242843 0.33580849 2886418 -0.97108674 -0.11833886 -0.20733175 0.05764512
2.5080214 0.080018923 0.33745286 4729665 -0.99753541 0.06581676 -0.024317117 0.043629866
2.5082095 0.099343427 0.33906597 2756125 -0.98403096 0.062103819 0.16681205 0.046974942
2.5133114 0.095229074 0.33672786 4005158 -0.96510237 -0.2020562 -0.16658509 0.044308074
2.4956217 0.11411902 0.33661079 3807520 -0.99542552 -0.088804334 -0.035240907 0.049639657
2.499388 0.12941897 0.33364433 3214609 -0.95128465 -0.19797537 -0.23635426 0.075418063
2.4962301 0.13419887 0.33820552 4202536 -0.99633491 0.0078448262 0.085178047 0.046660475
2.4818974 0.14704065 0.3318547 3279379 -0.98190725 -0.053989675 -0.18150274 0.065047398
2.5006309 0.15089951 0.33854035 5058626 -0.96814966 0.14484866 0.20421815 0.021978499
2.5137997 0.15529335 0.33915594 3149600 -0.99186331 -0.072184697 -0.10486473 0.037655171
2.5019283 0.16813019 0.33609658 3874602 -0.99642372 0.084325753 0.0053818808 0.040718924
2.4979572 0.17247587 0.33830804 3608346 -0.99788994 0.033393756 -0.05568257 0.036128003
2.4832983 0.18477289 0.33148819 2820629 -0.97831231 0.13637269 -0.15590887 0.042989552
2.5054848 0.18677048 0.33929583 5256259 -0.98289883 0.075057492 0.16815567 0.027180757
2.4998078 0.19099694 0.33833784 3083296 -0.99162942 0.098308131 -0.083705641 0.029249914
2.5050611 0.2050688 0.33628976 4135981 -0.9995268 0.01419357 -0.027289728 0.038252518
2.5193901 0.21124324 0.33924595 3870755 -0.95585597 0.28138989 -0.084611811 0.032784663
2.5029159 0.22443473 0.33272138 3147531 -0.95193499 0.14653063 -0.26897693 0.028768279
2.5212533 0.22989324 0.33927596 3608108 -0.98571378 0.16025406 -0.05183579 0.048840713
2.5036213 0.24343792 0.33253682 3673366 -0.9553107 0.1925852 -0.22425976 0.042336147
2.5231168 0.24854316 0.33930594 3807534 -0.99952638 -0.026622783 -0.015435175 0.046156149
2.5057683 0.26376119 0.3354046 3543063 -0.97934085 0.18350214 -0.084961668 0.043990724
2.5090604 0.28360242 0.33848676 4332069 -0.99529099 0.094479665 -0.021667764 0.041737799
2.5232646 0.28378499 0.33376336 3015437 -0.95210338 0.30393732 0.033486992 0.033226449
2.5057383 0.30044737 0.33198303 3278606 -0.96668655 0.24800973 0.063311338 0.042053096
2.5287073 0.30449301 0.33939594 3938866 -0.99886292 0.039424147 0.026807712 0.041126844
2.5127616 0.32064462 0.33854637 4070193 -0.99247509 -0.066835679 -0.10259743 0.048233274
2.5246859 0.32206544 0.33339155 3082251 -0.97754323 -0.18957831 -0.092029057 0.058816168
2.5253966 0.3412056 0.33320561 2951694 -0.95186263 -0.27117395 -0.14290623 0.04031701
2.532434 0.34179306 0.33945593 4333349 -0.9903394 -0.10600767 -0.089388393 0.037308373
2.5078549 0.35745683 0.33142927 3213326 -0.95994967 -0.1836309 -0.21160415 0.039613854
2.5164628 0.35768682 0.33860594 4071466 -0.99712998 -0.015880881 -0.07402499 0.043502994
2.5085604 0.37645999 0.33124468 2755087 -0.97386831 -0.047355808 -0.22212152 0.045416646
2.5183134 0.37620789 0.33863571 4333878 -0.99890238 0.045004051 -0.012989999 0.038376998
2.5092659 0.39546317 0.33106011 3147535 -0.97245324 -0.1138603 -0.20339769 0.051046763
2.520164 0.39472896 0.33866552 3940660 -0.99698269 0.043177415 -0.064507268 0.03845929
2.5099716 0.41446626 0.33087552 3016977 -0.96799892 0.014538878 -0.25053298 0.066130072
2.5220146 0.41325003 0.33869532 4465972 -0.99702114 0.043810382 -0.063478753 0.036118601
2.5106771 0.43346941 0.33069092 3016986 -0.9762097 0.10041346 -0.19217657 0.080466092
2.5238652 0.4317711 0.33872509 4465963 -0.99478012 0.082178995 -0.060490731 0.049769621
2.527688 0.45316949 0.33542249 3412508 -0.98870808 0.12722142 -0.079190075 0.05621314
2.509654 0.46528375 0.33790338 4336455 -0.98956424 0.14131454 -0.028157607 0.043060057
2.5120883 0.47147578 0.33032173 2623499 -0.98619771 0.05212526 -0.15715301 0.042367723
2.5294166 0.48733443 0.33881447 4074038 -0.99311948 -0.0057172342 -0.11696613 0.045334648
2.5127938 0.49047887 0.33013713 3015947 -0.97105199 -0.0072214194 -0.23875913 0.051636185
2.5312672 0.5058555 0.33884424 4596786 -0.9617756 -0.24517527 -0.12197092 0.035645761
2.5151672 0.52046037 0.33799213 4598326 -0.96205097 -0.21998453 -0.16144575 0.059438504
2.517005 0.53885257 0.3380217 4008759 -0.96517491 0.029311521 -0.25995833 0.075724535
2.536819 0.56141877 0.33893362 4730164 -0.91091901 0.095039323 -0.40148985 0.082292244
2.5386696 0.57993984 0.33896342 4992055 -0.92672175 -0.097729087 -0.36281657 0.10744502
2.5045159 0.58959746 0.33722782 5059915 -0.84735835 -0.39637133 -0.35337457 0.051926013
2.5063407 0.6078608 0.33725721 4336184 -0.88823366 -0.29517469 -0.35201257 0.059989315
2.5353458 0.60916835 0.33060274 2885652 -0.97836214 0.13407643 -0.15757897 0.037665028
2.5076785 0.62410915 0.33376235 4401722 -0.98079467 0.11092921 -0.16042587 0.025352348
2.5360565 0.62830853 0.3304168 3018519 -0.98818624 0.091004267 -0.12331377 0.03549945
2.5095682 0.63965988 0.3306081 3944246 -0.98955518 0.14350556 -0.013666064 0.02537011
2.5099902 0.64438748 0.33731595 4532019 -0.92979693 0.15243639 -0.33502358 0.025111182
2.536767 0.64744872 0.33023089 3083549 -0.99239731 0.095345438 -0.077825606 0.025828773
2.5119452 0.65722531 0.33097801 4074807 -0.99249285 0.11220735 0.048656359 0.028150607
2.5118151 0.66265076 0.33734533 4861500 -0.93512261 0.062975861 -0.34868288 0.023311341
2.5374777 0.6665889 0.33004498 3148309 -0.99700338 0.07731659 0.0025348663 0.034752656
2.514322 0.67479098 0.33134797 4072511 -0.99638331 0.080592528 0.026930159 0.027207296
2.5136399 0.68091416 0.33737472 4664371 -0.93548411 0.021359205 -0.35272264 0.026344102
2.5160818 0.69576705 0.33456099 4728634 -0.98853886 -0.0054122489 -0.15086971 0.028665636
2.5190759 0.70992219 0.3320879 3615541 -0.99907273 0.022069421 -0.036969636 0.030035393
2.5172894 0.71744072 0.33743346 4401211 -0.95951104 -0.13157465 -0.24905157 0.042473063
2.5048888 0.72248411 0.33208188 4138035 -0.99691194 0.038351208 -0.068526305 0.034240477
2.5191143 0.73570418 0.33746284 4533822 -0.95903927 -0.22393751 -0.17348096 0.036325347
2.502821 0.74837589 0.33660766 4073014 -0.99609095 -0.083809413 -0.027909236 0.029306265
2.5238295 0.74505329 0.33282778 3811631 -0.97945732 0.20127711 -0.01228726 0.029954446
2.5046329 0.76651037 0.33663681 3942952 -0.99966455 -0.019704914 0.016810583 0.029058138
2.5262065 0.7626189 0.33319774 3877688 -0.99129254 0.12562011 0.039480526 0.023071051
2.5064449 0.78464472 0.33666599 4401450 -0.99243343 0.093101673 0.080049664 0.021357652
2.5285833 0.78018451 0.33356771 2960675 -0.99348056 0.11045882 0.028201077 0.024334673
2.5143352 0.79229355 0.33355215 4007722 -0.98681021 0.035416331 0.15796 0.045437776
2.5082567 0.8027792 0.33669516 3874867 -0.98215222 0.12226598 0.14292672 0.025568312
2.5333371 0.8153156 0.33430758 4073524 -0.99209803 0.084884979 0.092390582 0.042260196
2.5282383 0.82702076 0.33760971 4203830 -0.99911016 -0.038548883 -0.017116979 0.055613305
2.5118806 0.83904803 0.33675349 3744300 -0.99293238 -0.10317401 -0.058655504 0.061630078
2.5357139 0.83288121 0.33467755 4006702 -0.99275285 0.00021043609 0.12017377 0.049349304
2.5214198 0.84465075 0.33465484 3547442 -0.98990703 -0.094691187 0.10544077 0.049163908
2.4965675 0.85119194 0.335949 3941425 -0.98067236 -0.1797736 -0.077222236 0.052732181
1.8435991 0.86999625 0.33410668 5844256 -0.021893881 -0.96620083 0.25685909 0.016140027
1.9444768 0.86241072 0.3325386 5055771 -0.00066111889 -0.99255145 0.12182451 0.022548497
1.9768056 0.86271948 0.33638638 5449512 0.0090196747 -0.98764509 0.15644777 0.022608051
2.0568898 0.86896074 0.33053708 3678505 0.02414245 -0.99363512 0.11002932 0.01723595
2.4983673 0.86920518 0.335978 3614265 -0.98586273 -0.11752491 -0.11942595 0.03916226
2.5237813 0.86210299 0.33502242 3481647 -0.9836008 -0.17989121 0.012985617 0.037167821
1.7274188 0.87633771 0.33211738 5384996 0.027648844 -0.96288747 0.26848328 0.021691047
1.7707652 0.87311256 0.3379772 5580570 -0.016759604 -0.92692411 0.37487432 0.015309637
1.8245543 0.87409794 0.33163595 5781288 0.018391384 -0.95176327 0.30628183 0.015145569
1.8832089 0.87552047 0.33904269 5712931 -0.053192969 -0.9616546 0.26905563 0.024480969
2.5261428 0.87955534 0.33538994 3089201 -0.94299132 -0.28164193 -0.17732815 0.060730267
1.7619814 0.88156253 0.33667517 4990489 -0.042773716 -0.93680429 0.34722933 0.020683799
2.5001671 0.88721818 0.33600697 4072493 -0.99605048 0.0094712097 -0.088282481 0.045422032
2.5117874 0.89087188 0.33535782 2958373 -0.72908503 -0.64175308 -0.23788239 0.090539947
2.4962857 0.90154535 0.33529404 3480626 -0.64893007 -0.69081777 -0.31884268 0.068006739
2.501967 0.90523142 0.33603594 3352093 -0.99090683 0.12479056 0.050309509 0.031654585
2.4818678 0.91240126 0.33525202 4004921 -0.5690347 -0.6965251 -0.43709528 0.037719786
2.4685369 0.92346275 0.33523253 2233112 -0.62099308 -0.69367701 -0.36493826 0.048669264
2.5037668 0.92324454 0.3360649 3087390 -0.9831875 0.16884728 0.069520302 0.030651998
2.4708371 0.94046211 0.33559051 3546403 -0.61632305 -0.70113933 -0.35853818 0.048326366
2.522752 0.94785476 0.33692852 3610414 -0.98152703 0.18767598 -0.037181824 0.042624585
2.524564 0.96598923 0.33695766 3087394 -0.98485774 0.14603654 -0.093426995 0.045151643
2.5091662 0.9772839 0.33615184 3216426 -0.98355681 0.14417057 -0.10876966 0.048480239
2.528188 1.0022581 0.33701602 3282728 -0.99165547 0.093809679 -0.088426523 0.058807649
2.53 1.0203927 0.33704516 2824738 -0.99255186 -0.062247325 -0.10471921 0.06932947
2.5318117 1.038527 0.33707434 2888987 -0.98164582 -0.18612362 -0.041588694 0.073817737
2.4980283 1.041554 0.33537963 2691618 -0.97641879 -0.21563545 -0.01038012 0.07437969
2.5181653 1.0673498 0.33629668 3084563 -0.99728489 -0.0042127273 0.073519327 0.090389475
2.5739729 1.1090111 0.33893877 4661776 -0.82778352 0.55585957 -0.076121561 0.079176836
2.4403944 -1.52011 0.34114796 8087909 -0.93408632 0.16093034 -0.31872278 0.048342515
2.4513772 -1.5202063 0.34425899 8153945 -0.91134036 0.22618987 -0.34394312 0.043766037
2.4608634 -1.511662 0.34214011 8482408 -0.86133343 0.24536076 -0.44486269 0.050744675
2.4727392 -1.511992 0.34519079 8087903 -0.94075519 0.17334214 -0.29143128 0.04083696
2.4813619 -1.5029259 0.3431327 8613996 -0.85964739 0.24051571 -0.45073128 0.053098883
2.4753449 -1.4927354 0.34559634 8481883 -0.93470711 0.22128733 -0.27812701 0.057615347
2.464757 -1.4726942 0.34220278 8352611 -0.92635685 -0.070597321 -0.36997178 0.047338814
2.4779506 -1.473479 0.34600189 8613732 -0.99107605 0.087590925 -0.1004791 0.045497306
2.4805562 -1.4542224 0.3464075 8679786 -0.98864681 0.15020624 -0.0039469306 0.027184758
2.4481237 -1.4427506 0.34127238 8812655 -0.9347201 -0.095313467 -0.34236479 0.033266921
2.4686503 -1.4337263 0.34226546 9205628 -0.89038253 0.09280584 -0.44565243 0.073816776
2.4831619 -1.4349661 0.34681305 9205103 -0.99974698 0.020280255 -0.0097332606 0.024382915
2.4705973 -1.4142425 0.34229681 9076605 -0.9179095 0.31522244 -0.24099168 0.10730032
2.4857676 -1.4157095 0.3472186 9205873 -0.98646235 -0.10067674 0.12944575 0.026216373
2.4911675 -1.404786 0.34329057 5654071 -0.95478535 0.23820229 -0.17788933 0.1008911
2.469481 -1.3864151 0.3470768 9404022 -0.9828313 0.11188398 0.14671274 0.045446075
2.4931288 -1.3851582 0.34332213 9470845 -0.98685044 0.12390619 -0.10379534 0.087614074
2.4720674 -1.3673021 0.34747937 7433071 -0.96567464 0.2422294 0.09379483 0.031525318
2.4764376 -1.3557906 0.34239084 9602428 -0.98782992 -0.030703416 -0.15247723 0.055773269
2.4746537 -1.3481891 0.34788188 10387055 -0.984662 0.15603015 0.078072794 0.030505419
2.4783843 -1.3363068 0.34242216 9930107 -0.93540967 0.14330646 -0.32322136 0.043572269
2.4772398 -1.3290759 0.34828445 9796207 -0.99845225 0.055041458 0.0079763243 0.033688631
2.4803309 -1.3168228 0.34245351 10127233 -0.93563658 0.16709431 -0.31090802 0.034074668
2.4798262 -1.309963 0.34868696 9535096 -0.99394774 0.10633819 -0.027567953 0.034832392
2.4823451 -1.2940944 0.34578717 9732986 -0.96787649 0.10838795 -0.22686377 0.035572663
2.4846115 -1.274796 0.34600413 9995386 -0.96670955 0.13508615 -0.21731152 0.027951956
2.4868782 -1.2554975 0.34622106 10390154 -0.96354091 0.10441927 -0.24634443 0.029415511
2.4881179 -1.2388873 0.34257886 10851993 -0.87474954 0.039280996 -0.48298067 0.031398874
2.4900649 -1.2194033 0.34261018 10786970 -0.89981359 -0.037796728 -0.43463427 0.063211501
2.4920115 -1.1999195 0.34264153 11313827 -0.93530065 -0.086822838 -0.34303731 0.055524763
2.4751768 -1.1719924 0.34170789 11642030 -0.98777044 -0.060748659 -0.14359398 0.036340803
2.4959049 -1.1609516 0.34270421 11641260 -0.98628688 -0.041553728 -0.15972321 0.031042462
1.5519601 -1.1478058 0.34009364 4539478 -0.82893682 0.36567879 0.42325258 0.080281943
2.4885314 -1.1403898 0.34921566 11704473 -0.98621547 -0.14714392 -0.075681664 0.039632104
2.4978518 -1.1414677 0.34273556 11774126 -0.98866743 0.056493167 -0.1390875 0.027300864
1.5536292 -1.1354715 0.34035343 4801624 -0.84838629 0.35748127 0.3904458 0.082061693
1.5621673 -1.1277398 0.34089804 4540246 -0.92052418 0.2730656 0.27941078 0.068821579
1.571702 -1.1205523 0.34148568 4143696 -0.93978184 0.34176022 0.0031903684 0.086918205
2.480974 -1.1139729 0.34180123 12038327 -0.99105501 -0.0039289459 -0.13339639 0.021692188
1.5655197 -1.1029652 0.34141982 4277335 -0.98531461 -0.10155721 0.13726395 0.052494783
2.4829063 -1.094633 0.34183231 11907252 -0.99476361 -0.028637446 -0.098108515 0.022286767
1.5609894 -1.0854282 0.34307665 4473422 -0.91834897 0.31995925 0.23294052 0.045174032
2.4906785 -1.0825582 0.34865391 12495019 -0.99181813 -0.12521362 0.024869267 0.022743622
1.5619743 -1.0737994 0.3416523 4536653 -0.94113272 0.26537687 0.20939064 0.032946672
1.5707303 -1.0772364 0.34542426 7167335 -0.81086737 0.55697221 0.1796557 0.053794272
2.4848387 -1.0752932 0.34186342 12038581 -0.99612933 -0.082830608 -0.029419571 0.029905286
1.5712669 -1.065239 0.34382349 6182997 -0.86530709 0.48581913 0.1233834 0.0479047
2.4913943 -1.0632808 0.34846663 12495532 -0.99743372 -0.041237656 0.058527868 0.011959144
1.5727324 -1.0527642 0.34396404 5783110 -0.81863356 0.57135731 0.058223732 0.035093103
2.4867711 -1.0559533 0.34189454 12434113 -0.99741715 -0.071575977 0.0059950058 0.030615387
1.5739006 -1.0410291 0.34272426 7627360 -0.79722857 0.59040737 0.12587976 0.035241131
1.5823221 -1.0443833 0.34612861 8219499 -0.88016796 0.47393283 0.026309222 0.026053932
2.49211 -1.0440036 0.34827942 12627903 -0.99805689 0.062282626 0.00182141 0.013218266
1.5914083 -1.0381961 0.34365645 7628656 -0.84260988 0.53505796 0.061005577 0.02873349
2.4887035 -1.0366135 0.34192565 12696258 -0.99969882 -0.020741355 0.013122737 0.027030319
2.4928257 -1.0247264 0.34809214 12629687 -0.99935091 0.035362259 -0.0068766144 0.011701567
2.4906359 -1.0172735 0.34195673 12893385 -0.99671507 0.046475578 -0.066326573 0.026576364
2.4935415 -1.0054492 0.34790492 12761023 -0.9956305 0.088313632 0.030343121 0.013443412
2.492568 -0.99793369 0.34198785 12896465 -0.99547118 -0.025433594 -0.09159828 0.023139197
2.4942572 -0.98617196 0.34771764 13092296 -0.99553353 0.091656454 -0.022630915 0.022607436
2.4945004 -0.97859383 0.34201896 12566990 -0.99131912 -0.12421583 -0.043091416 0.019239001
2.4949729 -0.96689475 0.34753042 13287114 -0.99427658 0.04426834 -0.097234122 0.027124092
2.4774928 -0.95239532 0.34108254 13685219 -0.99694175 -0.031480532 -0.071527235 0.030553197
2.4956887 -0.94761741 0.34734315 13157571 -0.98331147 -0.003104459 -0.18190399 0.02893498
2.4794109 -0.93319952 0.34111342 13487062 -0.99926323 0.013277078 -0.036010105 0.030568898
2.4964046 -0.9283402 0.3471559 13158861 -0.99263531 -0.0024330632 -0.12111675 0.026754994
2.4813287 -0.91400361 0.34114429 13684444 -0.99461859 0.10302394 0.010952353 0.025106944
2.4971204 -0.90906298 0.34696865 13224655 -0.99709141 -0.050210129 -0.057338387 0.019346137
2.4832468 -0.89480782 0.34117517 13683682 -0.99903679 0.015487655 0.041057114 0.02525817
2.4978361 -0.88978571 0.3467814 13422809 -0.98801714 -0.1258128 -0.089405626 0.01986064
2.4851649 -0.87561202 0.34120604 13551066 -0.9965356 -0.08256302 0.010011077 0.024819372
2.4985518 -0.87050849 0.34659415 13354196 -0.9882406 -0.03316588 -0.14926666 0.028673697
2.4870827 -0.85641611 0.34123692 13485022 -0.99756819 0.044460356 0.053674594 0.025523439
2.4813361 -0.84548664 0.34473261 13488091 -0.97659183 0.028258286 -0.21323684 0.026803592
2.4890008 -0.83722031 0.34126779 13750260 -0.9830426 0.18337655 0.00060030818 0.026350962
2.4999833 -0.83195406 0.34621966 13553633 -0.97652906 0.002505061 -0.21537106 0.028455427
2.4909186 -0.81802452 0.34129867 13486572 -0.97824836 0.19868611 0.059616074 0.024183694
2.500699 -0.81267679 0.34603238 13817318 -0.98506498 0.074431807 -0.15526418 0.039457005
2.4928367 -0.79882872 0.34132954 13157597 -0.99401826 0.035461474 0.10329657 0.030401476
2.4834681 -0.78806597 0.34417486 14014695 -0.99287689 -0.021283643 -0.11722851 0.043559421
2.5073009 -0.78219944 0.34014663 13030122 -0.98477405 0.15948388 -0.069173701 0.044861175
2.4947546 -0.77963293 0.34136042 12828893 -0.9946698 -0.10299832 0.0048347712 0.066121325
2.5021305 -0.77412236 0.34565789 13818347 -0.99273127 0.087242939 -0.082905471 0.047226664
2.5098505 -0.76335806 0.34054342 13223382 -0.99227035 -0.052217778 -0.11257404 0.036304139
2.4785933 -0.75530416 0.34047249 13092065 -0.98187339 -0.061017383 -0.1794477 0.070231467
2.5028462 -0.75484508 0.34547067 13749985 -0.98204833 0.1379566 -0.12864324 0.074385248
2.5124002 -0.74451685 0.34094027 13289947 -0.99249113 -0.062560938 -0.10510708 0.031588133
2.4804978 -0.73624486 0.34050313 12236507 -0.98968768 0.054250889 -0.13257153 0.081827089
2.503562 -0.73556787 0.34528339 13883125 -0.9922151 0.084738709 -0.091261409 0.074107222
2.4964657 -0.72079372 0.34085247 13157589 -0.99995381 0.00010289439 0.0096145282 0.064239047
2.4824018 -0.7171855 0.34053379 12103893 -0.94954056 0.31251124 -0.02663596 0.058493469
2.5042777 -0.71629065 0.34509614 14407666 -0.99513423 -0.030145165 -0.09380386 0.077546567
2.4989967 -0.70208824 0.34124646 13028570 -0.99253672 0.023113282 0.11973574 0.0542567
2.5024266 -0.70284963 0.34148392 11708108 -0.9884122 0.15170942 0.0050691962 0.053768214
2.5049934 -0.69701332 0.34490889 14931189 -0.97769022 -0.16919315 -0.12448094 0.024019813
2.5043445 -0.68365377 0.3415148 11576520 -0.98405051 0.13635133 -0.11424908 0.087469451
2.5200486 -0.68799293 0.34213069 13489895 -0.9865911 0.10576025 0.12430896 0.045391846
2.4877319 -0.67322481 0.34305933 14472956 -0.97849458 -0.12162611 -0.16659965 0.026494717
2.4881148 -0.66000742 0.34062576 11903955 -0.99494737 0.041357905 -0.091484033 0.081249803
2.5040591 -0.66467738 0.34203437 12898524 -0.99683499 0.055053469 -0.057351474 0.050404981
2.4884427 -0.65408462 0.34287342 14998011 -0.98734951 -0.028694639 -0.15594095 0.039129488
2.4900193 -0.640948 0.3406564 11904466 -0.99079144 -0.13262697 0.027247358 0.057771176
2.5065901 -0.64597201 0.3424283 13094874 -0.98261958 -0.086588509 -0.16419885 0.036688823
2.4891534 -0.63494444 0.34268749 14403311 -0.99211186 0.093087636 -0.083957523 0.048125077
2.5091212 -0.62726653 0.34282228 12897750 -0.98797435 -0.0014681463 -0.15461104 0.031720288
2.5100985 -0.62606633 0.34160742 11247054 -0.99649656 -0.081986763 0.016515732 0.062365852
2.4898639 -0.6158042 0.34250158 14075902 -0.98662615 0.1515184 -0.060091853 0.055454012
2.493443 -0.60366189 0.34171611 12234445 -0.97978997 0.12498389 -0.15617543 0.051488217
2.4905746 -0.59666401 0.34231567 12696545 -0.98246247 0.18638405 0.0053410647 0.055658944
2.4957323 -0.58376998 0.34074837 10325187 -0.97182333 0.077210248 -0.22270626 0.06421873
2.5092878 -0.58134991 0.34378541 11250888 -0.99273729 0.095403999 0.073286176 0.058665544
2.5141835 -0.58985573 0.3436102 13224922 -0.98853004 0.11654534 -0.096049875 0.036390983
2.5167146 -0.5711503 0.34400418 13160922 -0.99974942 -0.0057150838 0.02164516 0.033843867
2.4976368 -0.56471056 0.34077904 9797292 -0.97008574 0.089712523 -0.2255777 0.059335615
2.5100036 -0.56207269 0.34359813 10723006 -0.99689823 0.050854996 -0.060064759 0.053789642
2.4995413 -0.54565126 0.3408097 9469868 -0.98914886 0.022192519 -0.1452311 0.061607674
2.5005963 -0.54878592 0.34388772 13358048 -0.97341675 -0.22252259 0.054254461 0.029110188
2.4927065 -0.53924346 0.34175789 10393277 -0.96774167 -0.026638497 -0.25053242 0.019592542
2.503109 -0.5302164 0.34427884 13818339 -0.99150145 -0.10413236 0.077982455 0.056474518
2.5014453 -0.52659184 0.34084034 8877728 -0.92971593 0.12782282 -0.34538335 0.053064976
2.511435 -0.5235182 0.34322363 10849729 -0.96868324 0.0395483 -0.24513006 0.022614067
2.4879737 -0.50844777 0.34418252 13159386 -0.99494129 0.032732408 -0.094976112 0.072854616
2.4941278 -0.50096309 0.34138608 10849211 -0.96166092 0.17088938 -0.2144881 0.022608647
2.5033498 -0.50753254 0.34087101 8350357 -0.96634871 0.04593024 -0.25310212 0.05186912
2.5081344 -0.49307728 0.34506103 13160156 -0.9871853 -0.011312299 -0.15917675 0.062692419
2.5052543 -0.48847309 0.34090164 8285340 -0.9317742 -0.13148196 -0.33839244 0.042654406
2.5128665 -0.48496369 0.34284914 10914752 -0.97133619 0.15404937 -0.18103816 0.024520805
2.5106471 -0.47450772 0.3454521 13487073 -0.97166616 0.048773531 -0.2312704 0.042145513
2.4888744 -0.46632773 0.34001029 6904967 -0.9186883 -0.25251597 -0.30372283 0.028203087
2.5135822 -0.46568647 0.34266189 9929654 -0.97166836 0.18944809 -0.14131553 0.020767249
2.4954598 -0.45312414 0.34534767 13422562 -0.96262568 -0.11410095 -0.24562751 0.040232096
2.4907651 -0.44740483 0.34004074 6313080 -0.97223449 -0.059503321 -0.22631738 0.045009069
2.514298 -0.44640929 0.34247464 9273767 -0.98757654 0.13118689 -0.086502016 0.02261465
2.4979551 -0.43468288 0.34573612 13094363 -0.97333717 -0.077197999 -0.21599823 0.053183284
2.4926558 -0.42848191 0.34007117 5786997 -0.99056196 0.069736779 -0.11799955 0.028539319
2.5150137 -0.42713201 0.34228739 7696283 -0.99927229 -0.031825241 0.021025039 0.031571474
2.4827158 -0.41368428 0.34562352 13159390 -0.98465413 0.14044474 -0.10359326 0.068011127
2.4945467 -0.40955904 0.3401016 3813459 -0.98940086 -0.059194446 -0.13259736 0.038347986
2.5157297 -0.40785474 0.34210014 6445697 -0.99667019 -0.053206917 0.061786748 0.039273292
2.4851937 -0.39537141 0.34600922 13093846 -0.9928385 0.11542114 -0.030817153 0.086445056
2.4964373 -0.39063612 0.34013203 2698317 -0.98879755 0.011474243 -0.14882159 0.056925241
2.5164454 -0.38857752 0.34191287 4668259 -0.99075508 -0.067444794 -0.11770993 0.038665984
2.5054412 -0.37935928 0.34690127 13224154 -0.99874157 -0.0085662873 0.049415201 0.093934827
2.5171611 -0.36930028 0.34172565 1578292 -0.98125291 0.053125408 -0.18525802 0.034426849
2.4901497 -0.3587456 0.34678057 12699605 -0.93294579 -0.35572594 0.055419177 0.065248773
2.5002186 -0.35279033 0.34019291 1050673 -0.97886884 0.18541829 0.086231545 0.056916427
2.5178769 -0.35002306 0.34153837 1247280 -0.98298097 0.09666352 -0.15621966 0.027985245
2.4748232 -0.33838859 0.3466545 13026775 -0.96674985 -0.25144815 0.046568606 0.044490788
2.5021093 -0.33386743 0.34022334 853292 -0.99101377 0.1335673 -0.00717628 0.056752812
2.5185926 -0.33074582 0.34135115 984110 -0.98770899 0.026283933 -0.1540785 0.036677632
2.477284 -0.32020405 0.34703746 12569308 -0.971946 -0.22088958 0.080801465 0.050599255
2.5039999 -0.31494454 0.34025377 1049903 -0.99472624 -0.074886821 -0.070083283 0.036091309
2.5193083 -0.31146857 0.34116387 1181489 -0.98664117 -0.046124209 -0.15624265 0.03619631
2.4797447 -0.30201948 0.34742048 12372434 -0.99703336 -0.075907715 0.01274991 0.065490484
2.5058908 -0.29602164 0.34028423 1181487 -0.98181683 -0.08706852 -0.16868572 0.02498297
2.4643488 -0.28217581 0.34728357 12700124 -0.96266675 0.26788741 -0.038847268 0.066113859
2.5207398 -0.27291411 0.34078938 919087 -0.99073654 -0.0024291363 -0.13577622 0.050005406
2.4846659 -0.26565033 0.34818646 12633561 -0.95233738 0.29905549 -0.060161538 0.060281936
2.5214555 -0.25363687 0.34060213 1246253 -0.99141037 0.085786924 -0.098722629 0.055418793
2.5050178 -0.24886827 0.34909472 12501197 -0.97231305 0.23263983 -0.022048684 0.06425216
2.5221713 -0.23435964 0.34041488 1377067 -0.98923486 -0.058306884 -0.1342192 0.047660604
2.4895871 -0.22928122 0.34895238 12303569 -0.99607646 -0.080958776 -0.035741631 0.052187178
2.4920478 -0.21109666 0.3493354 12566740 -0.96385878 -0.22061402 -0.1493513 0.027590441
2.4765654 -0.19189461 0.34918496 12435665 -0.96523511 -0.047311138 -0.25706577 0.045283198
2.4790087 -0.17383836 0.34956524 12171983 -0.93553424 0.19723022 -0.29304597 0.047559392
2.4858544 0.22264528 0.34996575 3354943 -0.94717342 0.17510068 -0.26870489 0.028871629
2.5103385 0.22264139 0.34005132 5453386 -0.99282062 0.0221144 0.11755049 0.029300667
2.4865549 0.24151134 0.34978253 788521 -0.96615088 0.15754884 -0.20428142 0.028553741
2.5127654 0.24057685 0.34042904 5584456 -0.98459816 -0.0058659697 -0.17473446 0.046563089
2.5151925 0.25851232 0.34080681 5257537 -0.92992765 -0.2078795 -0.30334911 0.03241251
2.4992616 0.27412125 0.34070477 5257547 -0.93127531 -0.14226365 -0.33539146 0.026921554
2.5016713 0.29192838 0.3410798 5454926 -0.93128604 -0.060408294 -0.3592453 0.037138555
2.5040808 0.30973545 0.34145483 5585483 -0.92385203 0.041358449 -0.38050884 0.025986241
2.5064905 0.32754263 0.34182987 5519181 -0.91852409 0.10495775 -0.38117906 0.019776285
2.5088999 0.34534982 0.3422049 5387601 -0.91904593 0.0174817 -0.39376259 0.018824415
2.4907577 0.35470808 0.34868297 1246235 -0.98151559 -0.16386367 -0.098873317 0.045238327
2.5113096 0.36315688 0.34257999 5453645 -0.93547958 -0.0049769655 -0.35334581 0.029849274
2.4963429 0.37804961 0.3424882 5388104 -0.93714875 -0.049720801 -0.34536952 0.029864509
2.4987361 0.39573598 0.34286067 5650765 -0.93386704 -0.15037756 -0.32446718 0.032869726
2.5011294 0.41342235 0.3432332 5126476 -0.93723458 -0.18798657 -0.29368776 0.039692685
2.5111353 0.41460744 0.3498565 1967387 -0.98255068 0.044133421 -0.1806832 0.074599065
2.4860978 0.42783195 0.34313133 5388874 -0.97723681 -0.15739104 -0.14225465 0.051266998
2.5118408 0.43361059 0.3496719 2491674 -0.98028129 0.15736926 -0.11951383 0.071257949
2.4884748 0.44539756 0.3435013 4864846 -0.99286562 -0.058418967 -0.10394767 0.066674404
2.4908516 0.4629631 0.34387127 4864082 -0.98870128 0.070216164 0.13243693 0.024257557
2.513252 0.47161695 0.34930271 2689049 -0.99346149 0.0045195553 -0.1140781 0.056008611
2.4932284 0.48052871 0.34424123 5322827 -0.97803617 0.12299762 0.16827597 0.019728644
2.4956055 0.49809435 0.34461114 5060160 -0.98873389 0.011410382 0.14924881 0.025984412
2.5139575 0.49062005 0.34911811 3083031 -0.97725457 -0.11426532 -0.17865318 0.048790134
2.514663 0.50962323 0.34893355 3214615 -0.96874666 0.048103672 -0.24334334 0.046603173
2.4979823 0.51565987 0.3449811 4798279 -0.99030536 0.036480829 0.13403139 0.025888493
2.5003591 0.53322548 0.34535107 5126991 -0.99275345 0.091287658 0.078148767 0.03747841
2.5160742 0.54762948 0.34856439 2954004 -0.96011841 -0.011890643 -0.27934071 0.059260041
2.5027361 0.55079103 0.34572104 4730944 -0.98963267 0.12001725 0.078886755 0.03821611
2.4984632 0.5622353 0.34666714 3216408 -0.96823031 0.0040053264 -0.25002825 0.063135378
2.5051129 0.56835663 0.34609094 5189712 -0.98690242 0.12242913 0.10504624 0.028838584
2.5074897 0.58592218 0.34646091 4664399 -0.99112684 0.12588704 0.042661924 0.022193402
2.5174854 0.58563584 0.3481952 2887710 -0.93532419 0.27961543 -0.21675768 0.046031956
2.5098667 0.60348779 0.34683087 4600647 -0.99479902 0.093703046 0.039934222 0.021635447
2.5365179 0.60931057 0.34972063 3280928 -0.98468018 0.12779345 -0.11863315 0.050129555
2.5155702 0.62234771 0.34751344 4137012 -0.99303341 0.1101789 -0.041776188 0.035634425
2.5146203 0.63861907 0.34757081 4862276 -0.99146247 0.12994128 0.010838479 0.01738142
2.5196021 0.6426453 0.34764141 3607841 -0.98509401 0.1304383 -0.11214131 0.03792974
2.5169973 0.65618449 0.34794071 4795203 -0.99147856 0.12982024 0.010819227 0.017378781
2.5386498 0.66673112 0.34916288 2953504 -0.97355825 0.20809047 -0.09424869 0.026077472
2.5193741 0.67375016 0.34831068 4204606 -0.9975763 0.069439508 0.004432708 0.018911425
2.5393605 0.68587136 0.34897697 2953763 -0.99891156 -0.040146597 -0.023747919 0.055093911
2.5217509 0.69131577 0.34868065 4664129 -0.99934316 -0.027432602 0.023680033 0.019790698
2.5075464 0.70399773 0.34856758 4271681 -0.99971747 0.0029906773 0.023581179 0.022082277
2.540071 0.70501149 0.34879103 3284260 -0.99896693 -0.011803776 -0.043883447 0.047446515
2.5224242 0.71865791 0.34690309 3151658 -0.99313861 0.076858476 -0.08813899 0.047693346
2.509908 0.72144997 0.34893516 4467518 -0.99153882 0.081182212 0.10129288 0.0400001
2.5122697 0.73890233 0.34930268 4073012 -0.9827615 0.16013536 0.092392907 0.034601066
2.5414925 0.74329191 0.34841919 3610663 -0.98709339 0.050161611 -0.15208679 0.033900268
2.5146313 0.75635469 0.34967026 4203578 -0.98061085 0.18139578 0.074148156 0.026209164
2.5422029 0.7624321 0.34823328 2821902 -0.98061085 0.063698441 -0.18532383 0.031772655
2.5429137 0.78157234 0.34804738 3478806 -0.96854985 -0.16682844 -0.18460609 0.029046306
2.5436244 0.80071247 0.34786144 3544609 -0.98345196 -0.059220772 -0.17121693 0.043468539
2.5259521 0.81367362 0.34598014 3544873 -0.96230853 0.09817718 -0.25362086 0.048605632
2.5266576 0.83267683 0.34579554 3609901 -0.96238339 0.09829919 -0.25328925 0.048584584
2.5457563 0.85813308 0.34730369 3480356 -0.95049524 0.15290621 -0.27051532 0.058760881
1.9243184 0.86700732 0.34437096 6106159 -0.069546171 -0.969787 0.23383021 0.021875225
2.010143 0.86299843 0.34035474 5648696 -0.020980626 -0.98529714 0.16955626 0.015586147
1.7028979 0.87563187 0.34145892 5647141 0.054378182 -0.96390611 0.26063007 0.014279037
1.7282104 0.87643379 0.34502989 5253412 0.069587082 -0.95094329 0.30143756 0.014516969
1.8547401 0.87513316 0.34920791 5057064 -0.027046187 -0.93914914 0.34244338 0.012896851
1.9032552 0.871176 0.34164372 5778465 -0.01778258 -0.9722935 0.23308609 0.023416838
2.5464671 0.87727332 0.34711775 3808043 -0.98619664 0.10004228 -0.13193859 0.040252782
1.8166276 0.88319761 0.34397882 5451555 0.0017521214 -0.91681457 0.39930955 0.0094728945
1.8449576 0.88390958 0.3477672 5451818 -0.011296506 -0.93944132 0.34252369 0.011962063
2.5471776 0.89641351 0.34693184 3281190 -0.98354256 0.091686018 -0.15568525 0.03848508
2.5478883 0.91555375 0.34674591 3545638 -0.9599306 -0.15138705 -0.23582886 0.08572574
2.5124726 0.93955755 0.34300202 3283495 -0.68986577 -0.5451954 -0.4762848 0.076887183
2.548599 0.93469387 0.34656 3612447 -0.89754307 -0.39947158 -0.18665163 0.076161519
2.4947498 0.95114827 0.34113401 3217184 -0.93501419 -0.074872702 -0.34661579 0.067866042
2.5138736 0.9772898 0.34263548 3873838 -0.94400471 -0.045142557 -0.3268292 0.062384222
2.5145741 0.99615586 0.34245223 3021090 -0.94654596 -0.27421659 -0.16987059 0.06680797
2.5152745 1.0150222 0.34226897 3610143 -0.9950096 -0.073009394 -0.068011805 0.060432978
2.4975312 1.0260646 0.3404063 3084822 -0.98769552 0.014173592 -0.15574601 0.07032498
2.5166755 1.0527543 0.34190246 2756884 -0.95352823 0.21489254 -0.21119925 0.056541409
2.4571738 -1.4962531 0.35105389 8156024 -0.9442938 0.22111203 -0.24375963 0.070977055
2.4756479 -1.48738 0.35258615 8482661 -0.88386464 0.17216326 -0.43490583 0.060515735
2.4763637 -1.4681028 0.35239893 8285542 -0.88749766 0.16662408 -0.42963284 0.037254598
2.4770794 -1.4488256 0.35221165 8943472 -0.87503052 0.24403349 -0.4180541 0.066085398
2.4777954 -1.4295484 0.35202444 9336184 -0.98925298 0.10416649 -0.10260568 0.0865729
2.4972835 -1.42053 0.35364524 8747650 -0.99734068 0.041170299 -0.060138121 0.074521385
2.4792268 -1.3909938 0.35164991 3351064 -0.99342281 0.074322179 -0.08710555 0.066771694
2.4799426 -1.3717166 0.35146266 9796211 -0.98235732 0.13323569 -0.1312345 0.065280646
2.4806583 -1.3524393 0.35127541 9404022 -0.95443058 0.26262376 -0.14174286 0.039022047
2.5001678 -1.3428425 0.35289061 9601148 -0.9167974 0.35667375 -0.17962855 0.041658442
2.5008891 -1.3234206 0.35270196 9601401 -0.93380523 0.2685689 -0.23638634 0.043505404
2.50161 -1.3039986 0.35251331 9732217 -0.95627278 0.22409415 -0.18794757 0.037152261
2.5023313 -1.2845768 0.35232463 10059900 -0.9421854 0.30045295 -0.14837383 0.031653874
2.5030522 -1.265155 0.35213599 10454406 -0.95431513 0.20758834 -0.21491815 0.033112518
2.522594 -1.2546898 0.35374272 10782603 -0.97193062 0.024523957 -0.23398595 0.033723362
2.5092187 -1.2424014 0.35086867 10389892 -0.99926138 0.037872385 -0.0065118675 0.027385151
2.5233204 -1.2351232 0.35355264 11047052 -0.99094898 -0.070291318 -0.11436509 0.047146533
2.4927576 -1.2143977 0.35069969 10718857 -0.99826872 -0.056943998 0.014729559 0.034132857
2.5052156 -1.2068893 0.35157001 11311506 -0.99379045 -0.11077522 -0.010460501 0.041815493
2.4953439 -1.1952847 0.35110226 11113365 -0.99645597 0.066202067 -0.051891837 0.053605087
2.5247734 -1.1959901 0.35317254 11442582 -0.9983936 -0.056534644 -0.0037511291 0.04034235
2.49793 -1.1761717 0.35150477 11508123 -0.95840895 0.2850126 -0.014836133 0.039046936
2.5066578 -1.1680454 0.35119271 11706015 -0.97860354 -0.19699256 -0.059405778 0.04803225
2.5005164 -1.1570586 0.35190734 11508383 -0.97360104 0.16502766 -0.15769246 0.044573393
1.5571766 -1.1362023 0.35226452 5462626 -0.86169076 0.27720883 0.42502281 0.089804329
2.5031025 -1.1379455 0.35230985 11638940 -0.98292047 0.014579413 -0.18345271 0.039816372
1.5588455 -1.123868 0.35252431 5986663 -0.92086649 0.27322629 0.2781229 0.06720414
2.5081 -1.1292015 0.35081542 12100261 -0.98549867 -0.12938474 -0.10978124 0.039531846
1.5605146 -1.1115335 0.35278407 5921131 -0.98891646 0.10346977 0.10648143 0.065399073
2.5056889 -1.1188326 0.35271242 11967647 -0.96443951 -0.0083976313 -0.26417041 0.021282518
2.5088212 -1.1097797 0.35062674 11968421 -0.99424326 -0.049884517 -0.094825551 0.03848717
1.5621836 -1.0991991 0.35304385 5395814 -0.99754107 0.007017476 0.06973248 0.046039589
2.5082753 -1.0997195 0.35311493 12626088 -0.97865701 0.028211514 -0.20355491 0.029940452
1.5559603 -1.0817819 0.35291597 6577770 -0.96470988 0.13231225 0.22765841 0.041933987
2.5108614 -1.0806065 0.3535175 11968934 -0.9864344 -0.048395179 -0.15686029 0.028702902
1.5561987 -1.0798986 0.35639906 6313820 -0.83151948 0.47899237 0.2813212 0.042402197
1.5730803 -1.0774912 0.35782579 7825509 -0.82474244 0.50785166 0.24877039 0.048568565
1.5576211 -1.0695078 0.35317448 6509922 -0.93721634 0.30561665 0.16800018 0.030740837
1.5671906 -1.0621959 0.35382318 6774369 -0.86249661 0.48940638 0.12876745 0.031955797
1.5743355 -1.064929 0.35784599 4994880 -0.85224676 0.49271968 0.17579213 0.038592741
2.5134478 -1.0614934 0.35392001 12100514 -0.98691142 -0.073836163 -0.14336705 0.032704804
1.5756888 -1.0532584 0.3561458 5456198 -0.837111 0.52926117 0.13830291 0.034485754
1.5774632 -1.0417631 0.35468632 8089443 -0.83757484 0.53361499 0.11714724 0.035981204
1.592521 -1.0494741 0.3592937 7892581 -0.88597834 0.4467026 0.12449568 0.027128622
2.4978054 -1.0353166 0.35375252 12298410 -0.99527872 -0.042317059 -0.087348104 0.084387012
2.473412 -1.0295678 0.35990933 12692910 -0.99571609 -0.040213671 -0.083260387 0.023589233
2.482126 -1.0094113 0.35357931 12496561 -0.99479383 0.078833714 0.064579897 0.081586987
2.477248 -0.99117631 0.35997108 13153719 -0.99468517 0.00298528 -0.1029197 0.025597217
2.5029411 -0.9973622 0.35455188 12824756 -0.99407971 0.031457718 0.1039995 0.078642912
2.5055089 -0.97838503 0.35495159 13087668 -0.99496585 -0.022139931 0.097738422 0.083038509
2.5080769 -0.95940787 0.3553513 12891576 -0.97996974 0.10416561 -0.16973224 0.067903504
2.4923239 -0.93404615 0.35516658 12759733 -0.9425711 0.13961869 -0.30342445 0.057362657
2.4948735 -0.91520482 0.35556343 12890549 -0.96739602 -0.013066213 -0.25293121 0.067724332
2.5157804 -0.90247637 0.35655031 13153210 -0.98078138 -0.10683765 -0.16325952 0.055454724
2.4999723 -0.87752229 0.35635707 13021885 -0.97951114 -0.20114136 0.010003224 0.041345414
2.4726372 -0.85098749 0.35913476 13811651 -0.99858975 0.031542402 0.042703569 0.037934888
2.502522 -0.85868096 0.35675392 12957369 -0.97229028 -0.23123577 0.034375612 0.031663816
2.4745414 -0.83192807 0.35916543 13484231 -0.98025495 0.19561785 0.028877109 0.036282025
2.4866586 -0.83413458 0.35655203 13417663 -0.99966288 -0.0163863 0.020141572 0.057199344
2.4891899 -0.81542921 0.35694602 13613763 -0.98295903 0.14681336 -0.11062301 0.064964175
2.4917209 -0.79672372 0.35733995 13942724 -0.98521781 0.15135521 -0.080233999 0.044159397
2.494252 -0.77801836 0.35773394 13417922 -0.9901045 0.088494554 -0.10891199 0.045078102
2.4640536 -0.75055492 0.35823449 13746376 -0.99129421 -0.12407169 -0.044068724 0.054648958
2.496783 -0.75931287 0.35812786 13417409 -0.98050547 -0.0510443 -0.18974619 0.029081665
2.4993143 -0.7406075 0.35852185 13942726 -0.98762035 -0.010775679 -0.15649284 0.03810389
2.4840631 -0.73663133 0.3593187 13548995 -0.99647141 0.060928572 -0.057727963 0.080567077
2.5018454 -0.72190213 0.35891578 14009032 -0.99052495 0.06247909 -0.12229776 0.054287627
2.4859674 -0.71757197 0.35934937 13812167 -0.93024236 0.28027329 -0.23684631 0.064180143
2.5043764 -0.70319664 0.35930976 13811401 -0.98675084 0.15739587 -0.039361835 0.044463351
2.5069075 -0.68449128 0.35970369 13746636 -0.99868888 0.040332045 -0.031525288 0.04413718
2.4916804 -0.66039389 0.35944134 14403279 -0.98963696 0.05600198 -0.13222122 0.091091014
2.4933732 -0.64273399 0.35986438 13679813 -0.99531591 -0.088262163 -0.039447401 0.026816219
2.4954891 -0.62227517 0.35950264 14074823 -0.99174839 -0.12609896 -0.023112401 0.07025101
2.4791794 -0.59917176 0.35847798 14338511 -0.98369169 0.025449514 -0.17805332 0.061306383
2.4992979 -0.58415645 0.35956395 14074571 -0.97794032 0.071350992 -0.19632076 0.066413358
2.5031066 -0.54603773 0.35962528 14140618 -0.97138047 -0.016049881 -0.236986 0.066662565
2.486742 -0.52348012 0.35859975 14141134 -0.95185661 0.089819118 -0.29308954 0.046703346
2.5069151 -0.50791901 0.35968658 13877446 -0.92130679 -0.0025452015 -0.38882819 0.050953403
2.4905236 -0.48563436 0.35866061 13812171 -0.91545272 -0.12190289 -0.38351804 0.02599909
2.4924142 -0.46671146 0.35869104 13878212 -0.96696454 -0.11720958 -0.22636592 0.037926354
2.4943049 -0.44778857 0.35872149 14010059 -0.9893766 0.017715234 -0.14429195 0.03216603
2.4961956 -0.42886564 0.35875192 13614790 -0.98801309 0.12400328 -0.091942042 0.025786567
2.4980865 -0.40994278 0.35878235 13615049 -0.99559277 -0.013486734 -0.092807144 0.02597047
2.4999771 -0.39101985 0.35881278 13812428 -0.99841106 0.034430128 -0.044609729 0.045580175
2.4995639 -0.38597968 0.35938844 13943753 -0.98475003 -0.093558811 -0.14667712 0.038095098
2.4834902 -0.36969054 0.35778531 13484233 -0.9873926 0.15818834 0.0056841676 0.055613499
2.5002744 -0.36683947 0.3592025 13944782 -0.97593683 0.015785214 -0.21748154 0.030142624
2.5037584 -0.35317406 0.35887367 13484744 -0.99079174 0.12821807 -0.043495823 0.049597297
2.5009851 -0.34769928 0.3590166 13879504 -0.9663977 0.11595368 -0.2294127 0.028641162
2.5056491 -0.33425117 0.35890409 13418953 -0.99659938 0.038186315 -0.073017128 0.041025922
2.5016959 -0.32855907 0.35883069 13944266 -0.99146581 0.014852212 -0.12951866 0.050918348
2.4891214 -0.31333125 0.35787597 13286854 -0.99145275 -0.12009598 -0.050975099 0.021752391
2.4909985 -0.29454479 0.35790619 13353417 -0.97539598 -0.20390473 -0.083818577 0.031007448
2.5031171 -0.2902787 0.35845885 13746374 -0.98641199 0.018755333 -0.16321656 0.042236935
2.4928756 -0.27575836 0.35793641 13089476 -0.9653939 -0.20147552 -0.16559672 0.038661558
2.5038278 -0.27113849 0.35827291 13879761 -0.99512839 0.032380942 -0.093118086 0.047247291
2.4762931 -0.25538424 0.35690743 13221834 -0.95555794 -0.22301514 -0.19280383 0.043454122
2.5226362 -0.25349367 0.3598569 13550284 -0.99584705 0.078721866 -0.045733765 0.051964186
2.4781563 -0.23673426 0.35693741 13092298 -0.9743216 -0.14958279 -0.16829263 0.044031639
2.505249 -0.23285811 0.3579011 13617360 -0.99734747 -0.03503729 -0.063800097 0.048890181
2.4800198 -0.21808429 0.35696742 13156809 -0.97262013 -0.088646643 -0.21482995 0.045162205
2.5059597 -0.21371792 0.35771516 13552849 -0.99380946 0.031674486 -0.10648718 0.052878164
2.4818833 -0.19943431 0.3569974 12894666 -0.99595362 -0.039293539 -0.080823079 0.032323688
2.5066705 -0.19457772 0.35752925 13485773 -0.99490869 0.065812618 -0.076324619 0.049501218
2.4837468 -0.18078433 0.35702741 13353168 -0.9920975 0.084188864 -0.093030885 0.029460698
2.5254991 -0.17638472 0.35910791 13617360 -0.99855661 0.052725028 -0.010240346 0.054935366
2.4856102 -0.16213436 0.35705739 13484234 -0.99127787 0.10621403 -0.078017987 0.028797003
2.4994297 -0.15654299 0.35048434 12106700 -0.93737209 0.20415972 -0.28222755 0.048229557
2.5080917 -0.15629733 0.35715741 13814998 -0.98070735 -0.083772831 -0.17662162 0.047156982
2.4874735 -0.1434844 0.3570874 13223105 -0.9944104 0.0024615237 -0.10555533 0.024796242
2.5053463 -0.13775776 0.35391945 12566218 -0.97534394 -0.030953264 -0.21850879 0.04290041
2.489337 -0.12483443 0.35711738 13223631 -0.99801642 0.062427972 -0.008122758 0.025571102
2.4863386 -0.11966968 0.35070613 12369359 -0.9630301 -0.10219402 -0.24925765 0.043808833
2.5095129 -0.11801694 0.35678557 13355219 -0.97550637 -0.057209227 -0.21240176 0.031237116
2.4912004 -0.10618447 0.3571474 12763080 -0.99243027 0.12225471 -0.011664674 0.02589073
2.5068116 -0.10198928 0.35163334 11974861 -0.97485393 -0.074625067 -0.20997839 0.043582503
2.5102236 -0.098876737 0.35659963 13420758 -0.96372402 -0.21261194 -0.16134509 0.026523408
2.4921443 -0.085545853 0.35432202 12498890 -0.99188191 0.10437634 -0.07263542 0.03002901
2.5109344 -0.079736538 0.35641372 13420244 -0.95737761 -0.23835036 -0.16314825 0.037995111
2.4753473 -0.060346421 0.35271463 12895185 -0.95421606 -0.24627079 -0.16977149 0.065016255
2.4942977 -0.067192733 0.35452718 12433100 -0.99867392 0.028707024 -0.042735491 0.027485168
2.4967906 -0.050234549 0.3572374 12763350 -0.99367332 0.053372193 0.098817147 0.019620089
2.4760478 -0.041480318 0.35253137 13289436 -0.99047047 -0.055034798 -0.1262515 0.077821471
2.4961114 -0.047444705 0.35222724 11710654 -0.98872435 0.071744509 -0.13144207 0.044824097
2.4986541 -0.031584583 0.35726738 12632007 -0.99939603 0.034008708 -0.0071444814 0.024256621
2.4767482 -0.022614202 0.35234812 13289434 -0.99032801 0.13703755 0.021706847 0.049269658
2.4985547 -0.029388461 0.35260758 11643833 -0.99530917 -0.018352807 -0.094989017 0.046970632
2.5007577 -0.012133424 0.35514262 12302793 -0.99704635 -0.019831508 -0.074197471 0.036417011
2.4956129 -0.0034619223 0.35391742 13157084 -0.97752881 0.19307072 0.084623329 0.031092219
2.4863737 0.0063530765 0.35283819 12629962 -0.99092621 0.10888329 -0.078802325 0.029341886
2.5023811 0.0057153646 0.35732737 12107468 -0.99581748 -0.048507538 -0.077425085 0.020696884
2.4963183 0.01554123 0.35373282 13221598 -0.96785462 0.2513195 -0.00979969 0.031773675
2.4866176 0.023931572 0.35635391 12105158 -0.99644017 -0.0044083539 -0.084187448 0.025875811
2.5058846 0.02478024 0.35374841 11773885 -0.98762256 0.15684563 -0.001071483 0.023009583
2.5151982 0.035104655 0.35529822 13154524 -0.97621888 0.19145744 -0.1016902 0.036147658
2.4884682 0.042452671 0.35638371 12498638 -0.99217594 0.088145167 -0.08841572 0.030916901
2.508328 0.042836484 0.35412869 11314615 -0.98203671 0.18868658 -0.0011221768 0.021634452
2.515909 0.054244846 0.35511231 12367319 -0.94515151 0.064947568 -0.32011023 0.044707868
2.5079713 0.061665259 0.35741737 11446466 -0.9799248 0.19124715 -0.056319926 0.03296525
2.5107713 0.060892757 0.35450897 11181225 -0.9926365 0.12113137 4.3898825e-05 0.021121887
2.498435 0.072550707 0.35317907 11247818 -0.88785601 -0.19846418 -0.41511899 0.041106731
2.5132146 0.078949004 0.35488924 11115957 -0.99959975 -0.0076038181 0.027249934 0.024843343
2.5098348 0.080315262 0.35744736 11380421 -0.98455232 0.17508771 -0.0010415615 0.045829415
2.4991407 0.091553859 0.3529945 11184068 -0.87068003 -0.22956857 -0.43498802 0.035419039
2.5136781 0.097985208 0.35637343 10984626 -0.99842894 -0.027112752 0.049035244 0.044207878
2.4816515 0.10944858 0.35106531 9734571 -0.90626496 -0.18420026 -0.38046569 0.070727855
2.5009353 0.11396584 0.35510466 11707573 -0.99630117 -0.080752991 0.029375821 0.043463673
2.5135617 0.11761519 0.35750735 10391983 -0.99504542 0.091069192 0.039888594 0.053436328
2.482352 0.12831467 0.35088205 9468828 -0.93101645 -0.070854977 -0.35803345 0.074802756
2.5033622 0.13190131 0.35548237 11640761 -0.97511542 0.02488775 0.22029646 0.034002338
2.515425 0.13626516 0.35753736 9404834 -0.99888396 -0.045192678 0.013729438 0.041885279
2.4830525 0.1471808 0.3506988 8744083 -0.99059582 -0.047788892 -0.12820353 0.04602842
2.505789 0.14983673 0.35586014 10391195 -0.95817941 0.16185652 0.2359972 0.012796099
2.5172884 0.15491515 0.35756734 8813727 -0.99466294 -0.10248214 -0.011961997 0.032211691
2.483753 0.16604692 0.35051554 8351125 -0.99083537 0.022064554 -0.13326091 0.0536176
2.5082159 0.16777231 0.35623786 10128541 -0.96237183 0.12356184 0.24201849 0.012722534
2.5014219 0.17210029 0.35659224 8809627 -0.99675077 -0.021857452 -0.077525645 0.03853463
2.4844534 0.18491304 0.35033229 7234948 -0.9744789 0.020486014 -0.22354245 0.051106997
2.510643 0.1857077 0.35661563 9930141 -0.98990732 -0.0037527354 0.14166653 0.02730866
2.5032725 0.19062136 0.35662204 8219274 -0.97608471 0.10940904 -0.18785214 0.043539833
2.5042486 0.2073576 0.35426939 6641262 -0.96514076 0.17707837 -0.19273427 0.030963669
2.5130699 0.20364322 0.35699335 10784421 -0.9926526 -0.066654019 0.10098577 0.027003637
2.5154967 0.22157861 0.35737112 10258330 -0.99897295 -0.042723976 0.015093178 0.02718395
2.5247421 0.22951505 0.35768735 6311013 -0.98319924 0.17892399 -0.036131505 0.039735638
2.4995639 0.23745184 0.35715058 9995932 -0.96174729 -0.2314374 -0.14655691 0.036590252
2.5088243 0.24618466 0.35671139 5918057 -0.99444151 -0.027366482 -0.10167181 0.046203837
2.5019734 0.25525892 0.35752562 9405075 -0.95167542 -0.23739082 -0.19483209 0.031651922
2.5054908 0.26258221 0.3513332 591397 -0.92184901 0.37097427 -0.11212761 0.037043709
2.5284691 0.26681489 0.35774735 4734285 -0.98363531 0.15424491 0.093113758 0.052198593
2.4870703 0.27088347 0.3573325 9798547 -0.94522601 -0.22595993 -0.23556297 0.036701102
2.4894636 0.28856984 0.35770503 9798294 -0.94932479 -0.11639027 -0.29195169 0.044923998
2.5244367 0.28392717 0.35288125 852516 -0.94280082 0.32829297 0.057882626 0.022473754
2.5303326 0.28546488 0.35777733 4602186 -0.98924446 0.12163945 0.081236169 0.05757048
2.4918568 0.30625615 0.3580775 10060696 -0.95346642 0.0038409308 -0.30147487 0.040311277
2.5251474 0.30306739 0.35269535 1574444 -0.98054785 0.19222327 0.03970208 0.054649301
2.532196 0.30411482 0.35780734 3284797 -0.9914971 -0.10249901 -0.08017233 0.076206751
2.4942498 0.32394257 0.35845003 9862804 -0.9275704 0.031483933 -0.37231973 0.024210652
2.5162263 0.32026902 0.35683057 2824497 -0.99563938 -0.039217725 -0.084641777 0.064941853
2.5258579 0.32220763 0.35250944 1114146 -0.99342799 -0.11336198 -0.015807495 0.052523699
2.5083129 0.33859482 0.35059482 1246754 -0.97312146 -0.21119553 -0.091820896 0.058858357
2.5180769 0.33879009 0.35686034 3546175 -0.99196053 -0.07453081 -0.1022719 0.055873372
2.4966431 0.34162894 0.35882249 8812428 -0.94942445 0.058697667 -0.3084605 0.022155309
2.4990363 0.35931525 0.35919496 8942995 -0.95832914 0.025437277 -0.28453159 0.021792503
2.5199275 0.35731122 0.35689014 2427948 -0.99775374 0.044650182 0.049937963 0.040597241
2.5055768 0.37680137 0.35489658 5192785 -0.98199338 -0.086032316 -0.16818891 0.038251072
2.5217781 0.37583229 0.35691991 2888760 -0.99305928 -0.009781722 0.11720783 0.029709574
