# .PCD v0.7 - Point Cloud Data file format
VERSION 0.7
FIELDS x y z rgb normal_x normal_y normal_z curvature
SIZE 4 4 4 4 4 4 4 4
TYPE F F F U F F F F
COUNT 1 1 1 1 1 1 1 1
WIDTH 537
HEIGHT 1
VIEWPOINT 0 0 0 1 0 0 0
POINTS 537
DATA ascii
2.536962 1.0038427 0.43893555 8942460 -0.95704788 0.15147574 -0.2472136 0.05332632
2.5128841 1.0240302 0.43620637 8677494 -0.94997519 0.17417468 -0.25924972 0.045557983
2.5372498 1.0223237 0.43909377 8678007 -0.99081016 0.042227495 -0.12849954 0.066912204
2.5375373 1.0408045 0.43925199 8807538 -0.98240983 -0.072002746 -0.17229775 0.061296184
2.4385874 -1.4209782 0.44763243 10520201 -0.97571278 0.044351265 -0.21451712 0.062137395
2.4390218 -1.4023702 0.44752827 10979469 -0.97338063 0.11181398 -0.20006981 0.074589796
2.439456 -1.3837622 0.44742411 10456457 -0.98649043 0.12953924 -0.1002809 0.070476212
2.4398904 -1.3651543 0.44731998 10653338 -0.98622036 0.05563033 -0.15580359 0.064989977
2.4403245 -1.3465463 0.44721586 4469027 -0.91720599 0.091919847 -0.38766479 0.087053806
2.4407589 -1.3279383 0.4471117 11177860 -0.8074373 0.26959589 -0.52475047 0.095021509
2.4411931 -1.3093303 0.44700754 10718869 -0.62450945 0.59887904 -0.50133008 0.080662407
2.4586611 -1.299415 0.4492099 11245462 -0.67386746 0.60321975 -0.4266482 0.11916173
2.4564154 -1.2806374 0.4491578 11507603 -0.99336964 -0.11318037 0.020174593 0.045590639
2.4837441 -1.0066261 0.4499619 13877444 -0.99028522 0.075145371 0.11699753 0.011344407
2.4841847 -0.98775154 0.44985625 14074312 -0.99985433 0.0097848084 0.013987654 0.01039152
2.4846251 -0.96887702 0.4497506 14008267 -0.9979105 -0.051087108 -0.039557498 0.026935659
2.4850657 -0.95000249 0.44964498 14074573 -0.99320304 -0.091300718 -0.072193794 0.028203888
2.4674067 -0.92466587 0.44711256 14205646 -0.97817785 -0.11208131 -0.17494564 0.021386269
2.4859467 -0.91225332 0.44943371 14271953 -0.9731887 -0.11167932 -0.20107602 0.023742165
2.4682813 -0.88719094 0.44690281 14206929 -0.96973097 0.12267835 -0.21112056 0.030215088
2.4687185 -0.86845356 0.44679797 14338515 -0.97764355 0.011589936 -0.20994966 0.03380996
2.4872682 -0.85562962 0.44911683 14600915 -0.97922486 -0.018537048 -0.20192853 0.032971419
2.469593 -0.83097863 0.44658822 14602198 -0.98060185 -0.13841428 -0.13878569 0.030891893
2.4700303 -0.81224108 0.44648337 14601683 -0.98407125 -0.044665258 -0.17207198 0.035647132
2.4704676 -0.79350364 0.44637847 14798548 -0.99158269 0.075117096 -0.10545705 0.038320106
2.4890301 -0.78013134 0.44869429 15128029 -0.98618138 0.11384568 -0.12035556 0.040989511
2.4713423 -0.75602871 0.44616875 14865116 -0.98415476 -0.022292892 -0.17590486 0.033368513
2.4717796 -0.73729128 0.44606388 14733531 -0.98263639 -0.15169789 -0.10683437 0.022893146
2.4958975 -0.7287305 0.44015154 14666962 -0.9934957 0.11002365 -0.02934438 0.027155999
2.4722168 -0.71855384 0.44595903 14799066 -0.99614662 -0.047013905 -0.074038222 0.025234407
2.4961832 -0.71037918 0.44030866 14601685 -0.99942988 0.012837425 -0.031227054 0.031185273
2.4726541 -0.69981635 0.44585416 15259617 -0.99874473 0.030511217 -0.039725091 0.021249061
2.4964688 -0.69202787 0.44046578 14667227 -0.98499399 -0.15930706 -0.066393532 0.036500935
2.4730914 -0.68107891 0.44574928 15128031 -0.99153376 0.090786897 -0.092836492 0.024461782
2.4967544 -0.67367631 0.4406229 14667480 -0.99657685 -0.078589074 0.025658222 0.045666415
2.4735286 -0.66234136 0.44564444 14864859 -0.9842791 0.11854004 -0.13093153 0.025213087
2.4739659 -0.64360392 0.44553953 15128288 -0.9979378 0.027123943 -0.058176115 0.030622885
2.4973259 -0.63697356 0.44093713 14601945 -0.99118179 0.06734778 0.11411815 0.037407842
2.4744031 -0.62486649 0.44543469 14996702 -0.99962717 -0.024498621 0.012059949 0.02416832
2.4976115 -0.61862224 0.44109425 14536405 -0.97288322 0.12713468 0.19322263 0.019116605
2.4748404 -0.60612905 0.44532982 14930909 -0.99747413 0.059951611 -0.038094051 0.031504616
2.4978971 -0.60027081 0.44125137 14667737 -0.9889034 0.04110771 0.14275932 0.011486007
2.4752779 -0.58739156 0.44522494 14799323 -0.98853934 0.065865777 -0.13583703 0.034758229
2.498183 -0.58191937 0.44140849 14667476 -0.99026674 0.0156308 0.13830231 0.011464937
2.4757152 -0.56865412 0.4451201 14931163 -0.9840228 0.04226768 -0.17295273 0.027851515
2.4984686 -0.56356806 0.4415656 14864087 -0.9974032 0.0081781102 0.071553871 0.01718675
2.4761524 -0.54991657 0.44501519 15259617 -0.98580635 -0.010452446 -0.16756088 0.027645672
2.4987543 -0.54521662 0.44172272 14601434 -0.99660653 -0.030352689 0.076512747 0.019964555
2.4765897 -0.53117919 0.44491035 15062238 -0.98533291 0.010714969 -0.1703067 0.025750734
2.4990399 -0.5268653 0.44187984 14535894 -0.9961912 -0.026226347 0.083158232 0.019020587
2.4770269 -0.51244169 0.44480547 14996190 -0.97440839 0.14956808 -0.16780245 0.025801267
2.4993258 -0.50851387 0.44203699 14799064 -0.99565971 0.026449813 0.089231044 0.019697281
2.4774642 -0.49370423 0.4447006 15127776 -0.98721266 0.085174173 -0.13474648 0.035138186
2.4996114 -0.49016246 0.4421941 14733271 -0.98950845 0.034429003 0.14031267 0.012277666
2.4979873 -0.47497463 0.44467768 14864601 -0.99940139 -0.019644326 -0.028477354 0.026387535
2.4783387 -0.4562293 0.44449088 15062236 -0.9932971 0.044029925 -0.10687511 0.04479133
2.5001826 -0.45345965 0.44250834 14865370 -0.9947477 0.057313129 0.084806934 0.018963398
2.478776 -0.4374918 0.44438601 15061466 -0.99172443 0.12357847 -0.03480047 0.050000381
2.5004685 -0.43510824 0.44266546 14535892 -0.98839641 0.035962891 0.14757785 0.012479999
2.4973993 -0.42151457 0.44668722 14863577 -0.96494377 0.23968099 -0.10694218 0.033063114
2.5007541 -0.41675693 0.44282258 14272722 -0.99117368 -0.069176577 0.11309055 0.018909924
2.4978397 -0.40263999 0.4465816 14864087 -0.96621466 0.13634734 -0.21872073 0.028557194
2.5010397 -0.39840552 0.44297969 14666710 -0.99928886 -0.0061120815 0.037208918 0.024578989
2.4982803 -0.3837654 0.44647595 14667480 -0.97096336 -0.034077924 -0.23678899 0.022080176
2.5013254 -0.38005412 0.44313681 14470099 -0.99597383 0.089643978 0.00031612816 0.032542527
2.4987206 -0.36489084 0.4463703 14930652 -0.97154635 -0.00040415081 -0.23684943 0.023698932
2.5016112 -0.36170271 0.44329393 14799066 -0.99059379 0.053130649 -0.1260996 0.040156148
2.4809625 -0.34380451 0.44386166 14667737 -0.97133482 0.034568686 -0.23518862 0.022773921
2.5018969 -0.3433513 0.44345105 14404308 -0.99924427 -0.033914149 -0.018992528 0.033055011
2.4996016 -0.32714167 0.44615906 14536919 -0.97777933 0.0050654751 -0.20957556 0.03281245
2.5021825 -0.32499993 0.44360816 14338515 -0.99369448 0.05138706 -0.099652968 0.033136707
2.501255 -0.30745783 0.44490933 14865113 -0.99501944 0.020194901 -0.097614467 0.043532945
2.4822743 -0.28759214 0.44354707 14996443 -0.99420995 -0.070380732 -0.081198268 0.054892663
2.502754 -0.28829718 0.4439224 14534863 -0.99848819 -0.0019988983 -0.054931082 0.026058942
2.4827116 -0.26885465 0.44344223 14799064 -0.99132603 0.1049588 -0.079097539 0.055405233
2.5030396 -0.26994574 0.44407952 14470101 -0.9981699 0.029294666 -0.052903328 0.026200766
2.5023444 -0.25161892 0.44498658 14141392 -0.99906063 0.03955676 -0.017691851 0.037677761
2.5027075 -0.23300594 0.44501233 14272207 -0.99502951 -0.095672347 -0.027624661 0.042605281
2.4850864 -0.21315846 0.44281122 14469330 -0.99678528 -0.072636776 -0.033809774 0.042602748
2.4844608 -0.1939048 0.44302273 14600658 -0.99496222 0.095397301 -0.030815491 0.061555766
2.5041823 -0.19654019 0.44470802 13877711 -0.99653661 0.078414164 -0.027677478 0.034691364
2.5037966 -0.177167 0.44508958 14075345 -0.95744276 0.27904585 -0.073734187 0.039035268
2.5041599 -0.15855402 0.4451153 13943756 -0.98889172 0.14635085 -0.025973339 0.057406291
2.5227952 -0.1421849 0.44723988 13811653 -0.98964232 0.0080005489 -0.14333235 0.063691862
2.4857726 -0.13769242 0.44270813 14272718 -0.99550718 0.077283956 0.054704677 0.042825799
2.523083 -0.12370401 0.4473981 13745606 -0.98167831 -0.11209877 -0.15408315 0.057151154
2.4862099 -0.11895495 0.44260329 14470612 -0.99939013 0.031843659 0.014331208 0.034548827
2.505249 -0.10271508 0.44519252 13746376 -0.99426144 -0.074401289 -0.076867409 0.051417429
2.5056121 -0.084102102 0.44521827 13745607 -0.97669977 -0.178038 -0.11983345 0.039658319
2.4875216 -0.062742569 0.44228867 14139592 -0.96646857 -0.25553259 0.025329806 0.021224355
2.5061822 -0.068080463 0.44580784 13942728 -0.9689371 -0.19378057 -0.15365538 0.030790323
2.4883306 -0.046841405 0.44304138 13810885 -0.98543894 -0.16301237 -0.048343606 0.030037463
2.4889858 -0.031455811 0.44405493 13679556 -0.98047191 -0.1634528 -0.10935262 0.038329314
2.4883964 -0.02526764 0.44207895 13941961 -0.99655706 0.023657909 0.079463392 0.00086428516
2.4892695 -0.013233924 0.44421095 13415871 -0.98846465 -0.14911963 0.026478129 0.030284036
2.4888337 -0.0065301787 0.44197407 13942474 -0.99655628 0.023696737 0.079460435 0.00086431671
2.489553 0.0049879616 0.44436696 13415617 -0.99418283 -0.088948056 0.060735516 0.027223095
2.4892709 0.01220729 0.4418692 13811140 -0.99655348 0.023797475 0.079466246 0.00086434861
2.4898367 0.023209846 0.44452298 13480641 -0.99884444 0.0025903003 0.047990553 0.024538985
2.4897082 0.03094475 0.44176435 13876681 -0.99602991 -0.029472174 0.083999328 0.011806184
2.4901328 0.04555697 0.44316924 13809864 -0.99833977 0.042977378 0.038348049 0.020839738
2.4904041 0.059653629 0.44483501 13546687 -0.97933745 0.19306023 0.060215503 0.031543139
2.4906878 0.07787551 0.44499102 13284285 -0.99212688 0.11378733 0.052314106 0.032637123
2.49102 0.08715713 0.44144973 13415617 -0.99784994 0.055690125 0.034555245 0.023651762
2.5087533 0.097082064 0.44722193 13349824 -0.98705798 0.061950076 -0.1479145 0.059615783
2.4914572 0.1058946 0.44134486 13416893 -0.99789816 0.062830456 0.015861196 0.021598933
2.491255 0.11431929 0.44530302 13152958 -0.96120626 0.13733472 -0.23921078 0.060401086
2.4918945 0.12463206 0.44124001 13417411 -0.99940544 0.023539755 0.025191657 0.01208797
2.4915388 0.13254119 0.44545904 13087166 -0.93109339 0.24078019 -0.27402553 0.053686388
2.492332 0.14336953 0.44113511 13612478 -0.99653357 0.023954786 0.079668261 0.00086410774
2.5096104 0.15213622 0.44769329 12955067 -0.93116671 0.24430977 -0.27063128 0.079277426
2.4927692 0.16210699 0.44103026 13611703 -0.99654895 0.023952881 0.079476297 0.00086424826
2.5276861 0.17199031 0.44992974 13216945 -0.9583025 -0.22216089 -0.17972451 0.07295353
2.4927981 0.18402563 0.44342625 13151677 -0.99041361 -0.13775578 -0.010211173 0.037013177
2.4936438 0.19958191 0.44082052 13022137 -0.99653035 0.023968359 0.079704694 0.00086409977
2.4926734 0.20542873 0.4460831 12561075 -0.997697 -0.038165562 -0.05607225 0.066469468
2.494081 0.21831937 0.44071567 12955831 -0.99655515 0.023761479 0.07945551 0.00086433406
2.4929571 0.22365059 0.44623911 12756411 -0.97864848 0.19724418 -0.057808593 0.022135716
2.4945183 0.23705684 0.4406108 13153212 -0.99599153 0.07857246 -0.042747892 0.01970466
2.5110388 0.24389321 0.44847891 12624821 -0.9559359 0.25182739 -0.15089597 0.027704677
2.4949555 0.25579432 0.44050592 12758200 -0.98570323 0.093691505 -0.1400397 0.023573693
2.5113244 0.26224461 0.44863603 12429235 -0.95876986 0.11839437 -0.25834706 0.050538547
2.4953928 0.27453175 0.44040108 13020343 -0.98016375 0.09890233 -0.17174822 0.022950841
2.51161 0.28059596 0.44879314 12561075 -0.94882065 -0.068113327 -0.30838281 0.075657271
2.4949608 0.2949037 0.44357967 12822964 -0.9535535 -0.041905262 -0.29829457 0.042169057
2.4953213 0.3133834 0.44360524 12888245 -0.95273721 0.011831241 -0.30356517 0.051092751
2.495682 0.33186305 0.44363081 12821937 -0.95106709 0.1382385 -0.27633575 0.040028851
2.5141058 0.35317212 0.44588891 12625325 -0.96174234 0.17005906 -0.21478271 0.0321225
2.5130386 0.3723529 0.44957873 12165286 -0.92389882 0.27838436 -0.26251316 0.02063706
2.5133243 0.3907043 0.44973585 12165036 -0.96626425 0.060487948 -0.25034901 0.036368903
2.5167806 0.40896639 0.44203931 12560562 -0.99352026 0.023527326 -0.11119345 0.055637702
2.496361 0.44231325 0.44811124 12164521 -0.99165171 -0.089698762 -0.092634015 0.080413155
2.5181019 0.46559015 0.44172239 12493486 -0.92938608 0.26831549 -0.25347242 0.036096718
2.5185425 0.48446462 0.44161677 12230827 -0.9623701 0.050972585 -0.26691881 0.057201646
2.4972122 0.49697888 0.44857928 11769765 -0.94798452 -0.061989911 -0.31222215 0.04593654
2.5189829 0.50333917 0.44151112 12098980 -0.97343093 0.0010820299 -0.2289782 0.057754211
2.5194235 0.52221376 0.44140548 12229546 -0.98611671 0.1178965 -0.11693718 0.045627922
2.5382128 0.54532039 0.44366676 12098212 -0.98372465 0.10125086 -0.14843929 0.057523217
2.4980631 0.5516445 0.4490473 11310754 -0.97168523 -0.073338658 -0.22460914 0.053935315
2.4983468 0.56986636 0.44920331 11309725 -0.96838856 -0.008936327 -0.24928656 0.048546445
2.5386565 0.56433213 0.44356036 11703205 -0.96674281 0.1734809 -0.18791689 0.057265669
2.5207448 0.57883751 0.44108859 12097701 -0.93505883 0.1388481 -0.32616904 0.05379672
2.4989142 0.60631019 0.44951534 11111836 -0.98310316 0.10736706 -0.14825837 0.040753141
2.5395439 0.60235542 0.44334754 11571868 -0.96568662 0.24595805 -0.083390929 0.08381214
2.4991977 0.6245321 0.44967136 11045789 -0.98262757 0.16550997 -0.083961748 0.038228918
2.5399876 0.6213671 0.44324115 11441058 -0.97204852 0.23477268 -0.0018680394 0.062886626
2.5404313 0.64037877 0.44313473 11243679 -0.98374975 0.13399886 -0.11950205 0.07451804
2.540875 0.65939039 0.44302833 11309214 -0.98223674 -0.079303332 -0.17006485 0.091286741
2.5413187 0.67840213 0.44292194 11242651 -0.90574837 -0.19304176 -0.37729949 0.048370387
2.5233879 0.69208485 0.44045478 11307421 -0.93947524 -0.052862469 -0.33851424 0.0341422
2.5422058 0.71642542 0.44270915 11045013 -0.91781217 -0.023102425 -0.39634225 0.048602816
2.5426495 0.7354371 0.44260275 10914203 -0.92137051 -0.080423065 -0.38027439 0.056557976
2.5247092 0.74870855 0.44013786 10847645 -0.92128068 -0.13567534 -0.36446425 0.059659887
2.5251498 0.76758319 0.44003224 10650517 -0.96024477 -0.022611132 -0.27824226 0.065457009
2.5444243 0.8114838 0.44217712 10323596 -0.95507997 0.046420325 -0.29269007 0.044349764
2.0054126 0.83669341 0.44494241 8080727 -0.43422851 -0.89922231 -0.053337235 0.039191883
2.544868 0.83049548 0.44207072 10191763 -0.95371509 -0.040736504 -0.29793984 0.043920632
1.6729702 0.8490181 0.44992223 4986126 -0.66169596 -0.73295701 -0.1579005 0.10084503
1.6871824 0.84468746 0.4406139 6831414 -0.31671417 -0.94767398 -0.040077128 0.098052867
1.7199061 0.849226 0.44702601 6831654 0.082099192 -0.99063092 0.10913391 0.0041634794
1.9944577 0.84658962 0.44300836 8408894 -0.30882022 -0.95084095 -0.023057258 0.042607937
1.6649963 0.85696059 0.44820768 4594199 -0.86656767 -0.42208281 -0.26628309 0.047283471
1.7437719 0.85600889 0.44753522 6699828 0.20408924 -0.9750576 -0.087237582 0.0025871443
1.7526244 0.85375321 0.44068149 7357497 0.14225754 -0.98894602 0.041817501 0.0062791226
1.7883981 0.85885966 0.44742802 7815992 0.04850816 -0.99862415 0.019921701 0.0034229574
1.9205439 0.85568726 0.4445453 8472628 -0.044320744 -0.99737006 0.057347964 0.0056790947
1.6652839 0.86928469 0.44813868 4856346 -0.8774901 -0.40961111 -0.24945918 0.043386102
1.7931465 0.86992013 0.443492 7160619 0.116184 -0.99198335 -0.049702004 0.004366558
1.8110063 0.86598986 0.44628647 7751224 0.041767955 -0.99888337 -0.022077909 0.0080828806
1.8546748 0.86265111 0.44044241 8014647 -0.0043427255 -0.999834 0.01769563 0.0082788356
1.9002995 0.86022073 0.44095224 8210740 -0.045023747 -0.99804485 0.043351516 0.0050103986
1.940328 0.86391586 0.44003755 7816760 -0.0031503541 -0.99867761 0.051314022 0.016491508
1.9948038 0.86141968 0.44292539 7947578 -0.30812389 -0.95106673 -0.02305967 0.04269243
2.0044639 0.86490625 0.44928303 8147013 -0.69513744 -0.71853095 0.022298427 0.035376653
1.9021918 0.87206352 0.4476732 7752241 0.039664317 -0.99886745 -0.026278442 0.012291086
1.994103 0.87456888 0.44785145 8012331 -0.29694358 -0.95472962 0.017774908 0.075128488
2.4892578 -1.3895913 0.4524827 9931396 -0.88240755 -0.46752575 0.052693933 0.025397662
2.4895434 -1.3712399 0.45263982 9604474 -0.9033578 -0.41627839 -0.10323295 0.02177559
2.4721806 -1.3436409 0.45068267 10254711 -0.96772122 -0.24652101 -0.052374236 0.049713995
2.4724643 -1.3254191 0.45083869 10520708 -0.97177744 -0.22508767 -0.070599295 0.047515422
2.4727478 -1.3071972 0.4509947 10849416 -0.98682821 -0.15713193 -0.03846696 0.049747471
2.4771371 -1.2897446 0.4515464 11441303 -0.97277486 0.18787828 -0.13568667 0.069120958
2.4754462 -1.2708116 0.45137373 11376797 -0.99626565 0.054119468 -0.06727393 0.043814749
2.4758086 -1.2522635 0.45139891 11836575 -0.9927668 0.056760445 -0.10579412 0.03311985
2.4761705 -1.2337153 0.45142412 11903655 -0.98672885 0.039730959 -0.15744115 0.046271712
2.4765325 -1.215167 0.4514493 12231336 -0.96713638 0.081461057 -0.24085543 0.051074058
2.4768946 -1.1966188 0.45147449 12559019 -0.92084068 0.18252286 -0.34458372 0.039117821
2.4978375 -1.1847414 0.45334932 12887980 -0.94286728 0.21557531 -0.25402498 0.038658325
2.4747336 -1.179644 0.45208678 12428456 -0.88782424 0.067707062 -0.45517462 0.026087457
2.4750173 -1.1614221 0.45224279 12231846 -0.95862824 0.013868887 -0.28432307 0.053626213
2.4802203 -1.1576226 0.45080698 12824245 -0.96467721 0.15213822 -0.21506235 0.027798029
2.4987249 -1.146718 0.4531365 13021624 -0.97974092 0.0024776545 -0.20025386 0.031263575
2.4586697 -1.1358374 0.45039755 12494767 -0.95814228 0.20044976 -0.20440933 0.084096514
2.4755845 -1.1249783 0.45255479 12626614 -0.93475837 0.34770286 -0.073003307 0.052119311
2.4991686 -1.1277065 0.45303011 13415353 -0.97299534 -0.18192846 -0.1420638 0.045139518
2.4935429 -1.1143205 0.4548395 12496561 -0.97316438 0.16188823 -0.16353391 0.075253159
2.4815419 -1.1009989 0.45049006 13350841 -0.95800287 -0.26074269 -0.11934754 0.042319242
2.4761519 -1.0885346 0.45286682 13021626 -0.97965389 -0.16542409 -0.11363606 0.0476529
2.4819822 -1.0821244 0.45038444 13351353 -0.9873054 -0.15449309 -0.036877442 0.054635059
2.4764357 -1.0703127 0.45302284 13416380 -0.98305708 -0.15037826 -0.10481004 0.046355106
2.4824228 -1.0632498 0.45027879 13745606 -0.99789011 0.055721737 0.033323571 0.035057239
2.4767191 -1.0520908 0.45317885 13417144 -0.99524009 0.096474186 -0.013780311 0.027001547
2.4828632 -1.0443753 0.45017314 13416131 -0.99358529 0.014039228 0.11221091 0.011938756
2.4770029 -1.0338689 0.45333487 13680833 -0.99632853 0.072150245 0.04608478 0.02402824
2.4833038 -1.0255007 0.45006752 13942726 -0.99271905 0.0412746 0.11316048 0.011857222
2.4772866 -1.0156471 0.45349088 13548730 -0.99655581 0.019024687 0.080713384 0.019528413
2.4775703 -0.9974252 0.45364687 13417661 -0.99647158 0.079116143 0.028018536 0.026477415
2.477854 -0.97920328 0.45380288 13416891 -0.99801099 0.05152712 0.036319051 0.029330453
2.4781375 -0.96098143 0.4539589 13811399 -0.99636859 0.077352405 0.035586193 0.024472358
2.4784212 -0.94275951 0.45411491 13679815 -0.98511773 0.17172512 -0.0073154867 0.027842352
2.4787049 -0.92453766 0.45427093 13416895 -0.96376336 0.26616845 -0.017736452 0.022792434
2.4966855 -0.91245526 0.45656782 13942726 -0.96981579 0.23836055 -0.05139713 0.02540925
2.4969711 -0.89410383 0.45672494 13944266 -0.99238783 0.093631707 -0.07999754 0.028375244
2.497257 -0.87575239 0.45688206 14075854 -0.99395335 -0.07810653 -0.077175938 0.025242653
2.4975426 -0.85740107 0.45703918 14141134 -0.99848366 -0.031357318 -0.045245007 0.034168027
2.4801233 -0.8334282 0.45505098 14140618 -0.98545486 0.063443527 -0.1576506 0.038284831
2.4981139 -0.8206982 0.45735341 14601685 -0.9880318 0.054113071 -0.1444474 0.036560897
2.4983997 -0.80234689 0.45751053 14272718 -0.99360979 0.087416016 -0.071400918 0.033613056
2.4986854 -0.78399557 0.45766765 14600658 -0.99909627 -0.00027351014 -0.042503957 0.026290657
2.498971 -0.76564401 0.4578248 14404053 -0.99649793 0.072366007 -0.041894674 0.028025411
2.4992566 -0.7472927 0.45798191 14207957 -0.9970504 0.076741859 -0.0011316092 0.028597005
2.4995425 -0.72894126 0.45813903 14339026 -0.99994642 0.0064427545 -0.0081091532 0.025652755
2.4998281 -0.71058995 0.45829615 14536921 -0.99384874 0.03250856 -0.10586733 0.031874035
2.5001137 -0.69223863 0.45845327 14470101 -0.99182266 -0.10430387 -0.073542751 0.036816269
2.5003994 -0.67388707 0.45861039 14470097 -0.99661195 -0.010291751 0.081601195 0.05160062
2.48296 -0.65120924 0.4566111 14536151 -0.98764908 0.10630138 0.11510604 0.044669844
2.5009708 -0.63718432 0.45892462 14601687 -0.96889997 0.11668264 0.21821555 0.030116878
2.5012565 -0.61883301 0.45908174 14404306 -0.99402481 0.035894055 0.10308417 0.03083506
2.5015421 -0.60048157 0.45923886 14207186 -0.99566746 0.024002703 0.089834563 0.019836416
2.501828 -0.58213013 0.45939597 14666710 -0.98940516 0.033737648 0.14120655 0.012358456
2.5021136 -0.56377882 0.45955309 14666708 -0.97992384 0.013328003 0.19892617 0.00090134528
2.5023992 -0.54542738 0.45971021 14667728 -0.99092138 -0.070712775 0.11434378 0.01878028
2.5026848 -0.52707607 0.45986733 14667989 -0.99681485 -0.038108539 0.070056528 0.027625015
2.4869313 -0.39610291 0.45879525 14535125 -0.9990344 0.010682424 -0.042615954 0.03329958
2.4877822 -0.34143716 0.45926329 14403539 -0.99680138 -0.00096382515 -0.079913221 0.03090076
2.4933732 0.12470212 0.45992428 13614023 -0.99919617 0.039982527 -0.0028997585 0.022096897
2.4938107 0.14343959 0.45981938 13547203 -0.99722791 0.057471503 0.047260322 0.01232612
2.4942479 0.16217706 0.45971453 13414838 -0.99660838 0.023813762 0.078769773 0.0008645549
2.4946852 0.18091449 0.45960966 13611453 -0.99660724 0.023813821 0.078784376 0.0008645549
2.4951224 0.19965197 0.45950478 13218490 -0.99980688 0.0030694846 0.019410327 0.01157548
2.4955597 0.21838944 0.45939994 13022135 -0.99944979 0.010522367 -0.031456903 0.01828061
2.495997 0.2371269 0.45929506 13217974 -0.99933064 0.032021139 0.017687835 0.01171858
2.4964342 0.25586438 0.45919019 12890038 -0.99812865 0.057225376 0.021552568 0.011414548
2.4968715 0.27460182 0.45908535 13085623 -0.99938017 0.032604102 0.013277055 0.013159552
2.4973087 0.29333931 0.45898044 13020341 -0.99834329 0.0097579267 -0.0567047 0.019959101
2.497746 0.31207675 0.4588756 13085109 -0.99284166 0.054476779 -0.10629132 0.022676535
2.4981835 0.33081424 0.45877072 12756144 -0.99048418 0.066907942 -0.12026862 0.02759302
2.4986207 0.34955168 0.45866585 12954037 -0.99320936 0.080706567 -0.083795309 0.039573383
2.499058 0.36828917 0.458561 13019316 -0.99400687 0.078960828 -0.07560201 0.048198409
2.4994953 0.38702661 0.45845613 12822964 -0.99755985 0.054600429 -0.043511711 0.060379203
2.4999325 0.4057641 0.45835125 12493999 -0.99762863 0.00013419514 0.068827569 0.066331282
2.5314262 0.41224197 0.45198673 11968171 -0.92443526 -0.26600096 -0.2732453 0.054720178
2.5003698 0.42450154 0.45824641 12756144 -0.99990207 0.012711538 -0.0058546369 0.064542204
2.5138955 0.42740712 0.45005009 12229800 -0.94766128 -0.27571923 -0.16098763 0.048855778
2.500807 0.44323897 0.45814151 12689836 -0.98941875 0.13891232 -0.04188101 0.057378303
2.5012443 0.46197641 0.45803666 12230825 -0.96069694 0.21119288 -0.18016373 0.052893978
2.514467 0.46410987 0.45036432 12033189 -0.98764193 0.030198388 -0.15379046 0.067962803
2.5147526 0.48246124 0.45052144 12032168 -0.9627943 0.12868443 -0.23762897 0.058400329
2.5025563 0.51818883 0.45772207 12098212 -0.97438836 0.051597741 -0.2188722 0.049011596
2.5153241 0.51916403 0.4508357 11835038 -0.94676816 -0.11942074 -0.29894614 0.047535561
2.5156097 0.53751546 0.45099282 11441050 -0.96394622 -0.076454528 -0.25487718 0.060156748
2.5222342 0.57890809 0.45990959 11900572 -0.93438905 0.043630652 -0.35357255 0.054232944
2.5164669 0.59256965 0.45146418 11177626 -0.94103456 -0.027857641 -0.33716169 0.063694566
2.5226748 0.59778261 0.45980394 11572384 -0.89661825 0.26883286 -0.35185891 0.03826768
2.5231152 0.61665714 0.45969832 11768995 -0.88986355 0.36308226 -0.27625042 0.057894472
2.5173237 0.64762384 0.45193553 10914456 -0.97778815 0.20617242 -0.037726585 0.036060091
2.5176096 0.66597515 0.45209265 10913940 -0.99822295 0.046555292 -0.037196938 0.048711933
2.5244367 0.67328089 0.4593814 11440031 -0.89109594 -0.2609548 -0.37128246 0.061193772
2.5178952 0.68432659 0.45224977 10979480 -0.9897871 -0.11362568 -0.086085625 0.036742359
2.5248773 0.69215542 0.45927578 11111836 -0.9029727 -0.12436296 -0.41130793 0.029400464
2.5181808 0.70267791 0.45240688 10520728 -0.98146403 -0.11315327 -0.15467654 0.033475
2.5253177 0.71102995 0.45917016 11046300 -0.90138692 -0.085079014 -0.42457408 0.029156562
2.5184665 0.72102934 0.452564 10454414 -0.95041072 -0.21238708 -0.22718112 0.036738914
2.5257583 0.72990459 0.45906451 11112348 -0.91890228 -0.01999658 -0.39397833 0.03373519
2.5008998 0.73386341 0.45060742 10323346 -0.97043073 -0.18676612 -0.152914 0.037189655
2.5261986 0.74877912 0.45895886 10914967 -0.94036508 -0.041549701 -0.33761984 0.044358924
2.5011835 0.75208527 0.45076343 9994381 -0.97637415 -0.17697492 -0.12398966 0.044807371
2.5266392 0.76765376 0.45885324 10520207 -0.97611231 -0.02951359 -0.21525276 0.048312325
2.5014672 0.77030718 0.45091945 10125449 -0.99355656 0.10097869 -0.051465094 0.062031057
2.5017509 0.78852904 0.45107546 10191761 -0.96348053 0.26676947 -0.023225622 0.038157575
2.5270796 0.78652829 0.45874763 10520209 -0.97256744 0.052780844 -0.22655424 0.047925651
2.5275202 0.80540282 0.45864198 10323082 -0.95459098 -0.01501293 -0.29754123 0.055947047
2.5198951 0.81278628 0.45334962 9994631 -0.96931475 0.17451705 -0.17312646 0.055040512
2.5279605 0.8242774 0.45853633 10452884 -0.92819393 -0.01142091 -0.3719216 0.04500341
2.0065894 0.83674914 0.45981395 8147290 -0.59922415 -0.80009919 -0.027779836 0.038036641
2.5201807 0.83113772 0.45350674 10192273 -0.97439343 -0.12979454 -0.18360516 0.028138751
1.6881686 0.84473419 0.45307773 7158313 -0.33297995 -0.92882389 -0.16251346 0.098588824
1.9956279 0.84664506 0.45779628 8868177 -0.36667842 -0.93033707 0.0044649732 0.049393937
2.0156543 0.84097201 0.45074376 8412256 -0.48913699 -0.87213397 0.011286594 0.048673593
2.5244336 0.84632051 0.4560473 10124942 -0.9618817 -0.11609232 -0.24760082 0.037292279
1.7536497 0.85380179 0.45363897 7555125 0.12693514 -0.98971999 0.065892294 0.0047137337
1.8159149 0.8593567 0.4526518 8341306 0.066348463 -0.99717969 0.035081841 0.004612579
1.8341479 0.8549248 0.45616093 8210739 0.057177752 -0.99663466 0.058737453 0.0048063206
1.9216696 0.85574061 0.45877117 8211767 -0.016284477 -0.99719083 0.073111467 0.0079075415
1.9520944 0.85603452 0.45007324 7883312 -0.06958925 -0.99455953 0.077515759 0.015861219
2.0158813 0.85556018 0.45086867 7818056 -0.48721027 -0.87321287 0.011200489 0.050147768
1.7872031 0.86547363 0.45474318 7096116 0.13803308 -0.98784894 -0.071424231 0.0043147276
1.8040258 0.86107337 0.45748675 7620920 0.070962802 -0.99655527 -0.042917512 0.0082541117
1.8384231 0.86649954 0.45061624 7947568 0.0016980739 -0.99889284 -0.047012828 0.0070479205
1.8811499 0.86450177 0.45128295 8341809 -0.00056057505 -0.9998374 0.018028844 0.0067169573
1.8953625 0.86734402 0.45960698 7489059 0.053782206 -0.9968856 -0.057677258 0.010407579
1.9014133 0.86027348 0.45502621 7553587 -0.04805135 -0.99865741 0.019352274 0.005165203
1.9231868 0.86830735 0.45081893 8014900 -0.027125046 -0.99962389 -0.004040245 0.015257785
1.9537199 0.86867166 0.45542994 7949618 -0.035286516 -0.99825448 0.047358856 0.010808033
1.9959741 0.86147511 0.45771325 8342601 -0.50469679 -0.8632459 -0.009370286 0.040516932
2.5247967 0.86493349 0.45607305 10059144 -0.98502374 -0.01640127 -0.17163704 0.048029814
1.8764559 0.87175769 0.4566502 7686963 0.069015525 -0.99388826 -0.086156972 0.0075742155
2.5031693 0.87963849 0.45185551 9533063 -0.99240118 0.11031201 -0.054508939 0.043564823
2.5292821 0.88090116 0.45821944 10124422 -0.95413685 -0.12067354 -0.27397212 0.032069258
2.511302 0.89293808 0.4556247 9861515 -0.97654599 -0.061208609 -0.20642547 0.055117555
2.5213234 0.90454322 0.45413521 9664390 -0.99608248 0.08233165 -0.032268334 0.052491818
2.5117393 0.91167557 0.45551986 9860998 -0.95398521 0.075680651 -0.29014584 0.059644494
2.5216091 0.92289454 0.45429233 9599107 -0.97638434 0.20136775 -0.078260355 0.04548059
2.5121765 0.93041313 0.45541498 9794948 -0.9847464 -0.058062799 -0.164022 0.10186864
2.5218947 0.94124609 0.45444945 9468291 -0.98354727 0.15712485 -0.089143805 0.047255162
2.5221806 0.95959753 0.45460656 9335937 -0.94808704 -0.012186239 -0.31777725 0.072487369
2.531044 0.95639938 0.4577969 9532033 -0.92125839 -0.31999379 -0.22110412 0.095932357
2.513051 0.96788812 0.45520526 9597827 -0.90806854 -0.37393847 -0.18863107 0.072095998
2.5224662 0.97794884 0.45476368 9270140 -0.90129501 0.07510148 -0.42664638 0.054133248
2.5134883 0.98662543 0.45510036 9467008 -0.98795933 -0.09565793 -0.12159747 0.078470439
2.49651 0.99812841 0.45264912 9399937 -0.98690689 0.10401507 -0.12327088 0.033360086
2.5227518 0.99630016 0.45492083 9073783 -0.89850599 0.13121442 -0.41889116 0.056176797
2.5143628 1.0241003 0.45489064 8940148 -0.98190671 0.10814486 -0.15544762 0.032463294
2.5409205 1.0221115 0.45720828 9006717 -0.91438466 0.1059249 -0.39074373 0.05253068
2.541208 1.0405923 0.4573665 8808310 -0.91823512 0.14047615 -0.37028474 0.048521318
2.5236089 1.0513544 0.45539218 8480626 -0.93642521 0.14907646 -0.31762245 0.04598302
2.4400558 -1.4209086 0.46618766 10717838 -0.97576243 0.12242139 -0.18138562 0.060123287
2.4404902 -1.4023006 0.4660835 10651785 -0.97447407 0.21361484 -0.069057576 0.062623776
2.4409244 -1.3836926 0.46597934 10783379 -0.98773354 0.12695864 -0.090906583 0.050960742
2.4413588 -1.3650846 0.46587521 10849164 -0.99693483 0.073941238 -0.025566565 0.032065511
2.4755161 -1.3620721 0.46838731 9997707 -0.91300827 -0.39414659 0.1051874 0.038571056
2.4247587 -1.337396 0.46333331 10455956 -0.99007672 -0.13873744 0.022362502 0.038732488
2.4591653 -1.3351451 0.46643397 5982537 -0.96381617 -0.25861222 0.064638115 0.054442454
2.4760835 -1.3256283 0.46869934 10915206 -0.98569989 -0.14833255 0.079957627 0.054394588
2.42519 -1.3189174 0.46322989 11307657 -0.9939636 0.10964633 -0.0037531259 0.09277638
2.425621 -1.300439 0.46312648 10916240 -0.84518284 0.46056843 -0.27118734 0.11855353
2.476367 -1.3074064 0.46885535 10915217 -0.98328787 -0.11973896 0.13714084 0.060831569
2.4601398 -1.2993449 0.46789417 11375257 -0.68920261 0.67539006 -0.26238912 0.11111692
2.4600105 -1.2808452 0.46689889 11308945 -0.98920894 -0.1003523 0.10674775 0.044436719
2.4606533 -1.2623076 0.46736914 11508385 -0.98775685 -0.020416794 -0.15465921 0.04807172
2.4772182 -1.2527407 0.46932337 11442584 -0.98747957 -0.0059927339 -0.15763317 0.059530385
2.460856 -1.2265452 0.4673638 11772066 -0.93411475 -0.10666768 -0.34066349 0.028316475
2.4617319 -1.2070515 0.4674443 12297642 -0.94706839 0.097198129 -0.30596405 0.036056526
2.4614196 -1.1903452 0.46767372 12296359 -0.90668833 0.08907833 -0.41228801 0.025119498
2.4808288 -1.1953012 0.46983922 12887726 -0.95277679 0.22596914 -0.2028655 0.055909507
2.4617012 -1.1722451 0.46782869 12231077 -0.90289074 0.082861722 -0.42180845 0.036818456
2.4812694 -1.1764265 0.4697336 13020082 -0.9652912 0.20152065 -0.16613978 0.051456302
2.461983 -1.1541451 0.46798366 12495532 -0.91819954 0.18052997 -0.35258844 0.0541922
2.4817097 -1.157552 0.46962798 12955833 -0.97495735 0.1339338 -0.17753881 0.030407727
2.4622648 -1.1360452 0.46813864 12560811 -0.90987802 0.33291557 -0.24756685 0.059940353
2.4821503 -1.1386774 0.46952233 13021624 -0.9552145 -0.16480421 -0.24577375 0.049083956
2.4649498 -1.0932329 0.46674061 13351100 -0.96862149 -0.12082337 -0.21719611 0.055190593
2.4631102 -1.0817451 0.46860352 13087668 -0.93177897 -0.14169672 -0.33423045 0.040375516
2.4834716 -1.0820538 0.46920544 13482175 -0.98138094 0.11211946 -0.15595129 0.031972203
2.4633918 -1.0636452 0.46875849 13416121 -0.95253855 0.0473933 -0.30070612 0.041399151
2.4839122 -1.0631793 0.46909979 13613761 -0.96579152 0.17386475 -0.19240013 0.026268166
2.4843526 -1.0443047 0.46899414 13942211 -0.99699938 0.074733041 -0.020182423 0.040452003
2.4847932 -1.0254301 0.46888852 14008006 -0.99929291 -8.0225524e-05 -0.037598968 0.038598664
2.4852335 -1.0065556 0.4687829 13680583 -0.98939598 -0.056620337 -0.13375279 0.02116413
2.4856741 -0.98768097 0.46867725 13943239 -0.99120545 -0.016220337 -0.13133426 0.026442831
2.4861145 -0.96880645 0.4685716 13943753 -0.98129863 -0.07339859 -0.17794888 0.026793633
2.4865551 -0.94993192 0.46846598 14140107 -0.9781304 -0.11903748 -0.17056115 0.031805497
2.4688854 -0.92459577 0.46579683 14141132 -0.97578412 -0.1695137 -0.13824102 0.027815137
2.4693227 -0.90585828 0.46569195 14337743 -0.98302782 -0.13151133 -0.12791041 0.024142783
2.4697599 -0.88712084 0.46558708 14665944 -0.98461956 0.10886537 -0.13664803 0.032950103
2.4701972 -0.86838347 0.46548223 14864087 -0.98965633 0.035825562 -0.13891326 0.033138365
2.4887576 -0.85555905 0.46793783 14732753 -0.98946166 0.033657443 -0.14082921 0.03408106
2.4710717 -0.83090854 0.46527249 14930650 -0.99734235 -0.067975648 -0.026222402 0.028636415
2.471509 -0.81217098 0.46516764 14536151 -0.99873769 -0.049318433 -0.0095250541 0.032286733
2.4719462 -0.79343355 0.46506274 14733273 -0.99692029 0.078105763 -0.0070403963 0.023320664
2.4723835 -0.77469605 0.46495789 14929880 -0.99711043 0.040260676 -0.06442003 0.029584728
2.472821 -0.75595862 0.46485302 15061466 -0.99540895 -0.0070250607 -0.095455095 0.025339875
2.4732583 -0.73722118 0.46474814 15193054 -0.99844348 -0.036839522 -0.041873991 0.019321041
2.4736955 -0.71848375 0.4646433 15259617 -0.99659723 0.02290139 0.079180777 0.00086396543
2.4741328 -0.69974625 0.46453843 14996703 -0.99661309 0.02302702 0.078944288 0.00086431077
2.47457 -0.68100882 0.46443355 14996445 -0.99661696 0.023469988 0.078764431 0.00086465123
2.4750073 -0.66227126 0.46432871 15061983 -0.99871635 0.045697074 0.021852393 0.013405511
2.4754446 -0.64353383 0.4642238 15061983 -0.99382162 0.053390037 -0.097304694 0.028340714
2.4758818 -0.62479639 0.46411896 15193820 -0.99837083 0.034876294 -0.045159478 0.022238459
2.4763191 -0.60605896 0.46401408 15193822 -0.99959457 -0.016342845 0.023316886 0.012844858
2.4767566 -0.58732146 0.46390921 15260128 -0.99402291 0.087287076 0.065570697 0.025476335
2.4771938 -0.56858402 0.46380436 14997470 -0.99916017 0.040952716 0.0013717785 0.035489671
2.4776311 -0.54984647 0.46369946 15062238 -0.99866247 -0.021766983 0.04689892 0.025541782
2.4780684 -0.53110909 0.46359462 15193822 -0.9995023 -0.014637398 0.027946025 0.01288144
2.4785056 -0.5123716 0.46348974 14798296 -0.99416274 0.10784461 -0.0031627417 0.021459591
2.5029707 -0.50872463 0.46002448 14798297 -0.9990685 0.0057715294 -0.042764712 0.026392203
2.4789429 -0.49363416 0.46338487 15193054 -0.98727071 0.090259328 -0.13095748 0.034251351
2.5032563 -0.49037319 0.46018159 14732503 -0.99645674 0.035424251 -0.076282978 0.025217064
2.4793801 -0.47489667 0.46328002 15127776 -0.99609864 0.030255044 -0.082899027 0.031520125
2.5035419 -0.47202179 0.46033871 14798296 -0.99751067 0.043145474 -0.0557766 0.030344121
2.4798174 -0.45615923 0.46317515 14865117 -0.99909937 0.039563417 0.015334202 0.025435068
2.5038276 -0.45367038 0.46049583 14799064 -0.99572951 0.078486003 -0.048607875 0.024892498
2.4802547 -0.43742174 0.46307027 14995673 -0.98998308 0.13679244 -0.034947984 0.026626725
2.5041134 -0.43531898 0.46065295 14273233 -0.99904877 0.0016056435 -0.043577749 0.032957476
2.4806919 -0.4186843 0.46296543 14864857 -0.9869501 0.11323116 -0.11449149 0.02885285
2.5043991 -0.41696766 0.46081007 14338515 -0.99845958 -0.032761291 -0.044778783 0.031924728
2.4811294 -0.39994681 0.46286052 14865117 -0.97480267 0.081425019 -0.20767722 0.024533354
2.4815667 -0.38120937 0.46275568 14733018 -0.97859681 -0.025524355 -0.20419818 0.022877317
2.5049703 -0.38026485 0.4611243 14404308 -0.99822724 -0.03714747 -0.046503145 0.036639482
2.4820039 -0.36247194 0.46265081 14733271 -0.97899884 0.0093138032 -0.20365308 0.024327988
2.5052562 -0.36191344 0.46128142 14009808 -0.99486732 0.065436512 -0.077182285 0.033538267
2.4824412 -0.34373444 0.46254593 14733273 -0.97331345 0.11082492 -0.20094481 0.025536565
2.4828784 -0.32499701 0.46244109 14733782 -0.98256201 0.019937551 -0.18486312 0.035648111
2.5058274 -0.32521066 0.46159565 14140366 -0.99837285 0.039908592 -0.040731583 0.032584284
2.5038223 -0.3075279 0.46331358 14601686 -0.99367344 0.074753173 -0.083815902 0.038563121
2.483753 -0.28752208 0.46223134 14798296 -0.99977571 0.020793067 -0.0040282537 0.056185011
2.5063989 -0.28850791 0.46190989 14010061 -0.99629736 0.080202229 -0.030970024 0.02914184
2.5066845 -0.27015647 0.46206701 14009548 -0.998923 0.046292193 0.0031436833 0.028565753
2.4841902 -0.26878458 0.46212649 14601432 -0.99150079 0.13009544 0.0011713878 0.056620598
2.5049114 -0.25168899 0.46339083 14403795 -0.99792176 -0.020039745 -0.06124064 0.04369092
2.5052748 -0.23307601 0.46341658 14403538 -0.99016005 -0.12454501 -0.063809149 0.034107223
2.4876351 -0.21322806 0.46108362 14601426 -0.99573237 -0.078886725 -0.047894165 0.045583017
2.4859395 -0.19383474 0.461707 14272202 -0.98930854 0.12796845 0.069948092 0.058224142
2.4900517 -0.19566205 0.46051139 14535122 -0.99362588 0.069710441 -0.08858896 0.036281679
2.5063639 -0.17723708 0.46349382 14074572 -0.97228777 0.22643702 -0.058161195 0.039046913
2.5083985 -0.16004814 0.46300974 13877195 -0.93080318 0.2361235 -0.27901831 0.025594633
2.5050554 -0.15720005 0.46402934 14403790 -0.99452692 0.097380191 0.037859071 0.063470982
2.5086844 -0.14169675 0.46316686 13876681 -0.95267159 0.038229663 -0.30158806 0.040158439
2.5054958 -0.1383255 0.46392369 14141643 -0.99712265 -0.013075055 -0.074669242 0.049038697
2.50897 -0.12334537 0.46332398 13679815 -0.96883702 -0.032725882 -0.24552768 0.046253014
2.5059364 -0.11945093 0.46381807 14403538 -0.99291521 0.054457359 -0.10561172 0.048792541
2.5078163 -0.10278517 0.46359676 13877706 -0.99004668 -0.046041112 -0.13299514 0.044010177
2.5081792 -0.084172189 0.46362251 13811657 -0.98644251 -0.14700572 -0.072941527 0.045651212
2.4890003 -0.062672511 0.46097293 14074061 -0.98137146 -0.17541286 -0.078361578 0.037363693
2.5098271 -0.068291202 0.46379533 13810376 -0.98945385 -0.14478184 -0.0044043516 0.039129753
2.4894378 -0.043935042 0.46086806 13812167 -0.99825555 -0.051291317 -0.029242855 0.03322202
2.492321 -0.049886961 0.46175948 13679556 -0.97755694 -0.18827461 -0.094526045 0.029191317
2.4926047 -0.031665068 0.46191546 13547966 -0.99381715 -0.108781 0.022229865 0.034357663
2.4898751 -0.025197579 0.46076322 13745606 -0.99911523 -0.022750339 -0.035371631 0.017365916
2.4928885 -0.013443181 0.46207148 13415869 -0.99382567 -0.061452813 0.09238027 0.032172777
2.4903123 -0.0064601153 0.46065834 13679813 -0.99888027 0.0064792382 -0.046864189 0.017146518
2.4931719 0.0047787037 0.46222749 13415871 -0.98865753 -0.094536491 0.11670119 0.026179135
2.4907496 0.012277354 0.46055347 13547457 -0.99939734 0.029797066 0.017810572 0.011739463
2.4767029 0.022562785 0.46031547 13284032 -0.99973571 -0.020874158 0.0096371928 0.033218402
2.4911869 0.031014813 0.46044862 13810888 -0.99804801 0.056665167 0.02625411 0.011619434
2.4926817 0.045487374 0.46144164 13547460 -0.99799156 0.049190339 0.039913923 0.025213113
2.4940231 0.059444372 0.46269554 13219516 -0.97567654 0.19834194 0.093358651 0.022391591
2.4920614 0.068489723 0.46023887 13744836 -0.99864531 -0.017553011 -0.048985362 0.034130294
2.4943068 0.077666253 0.46285155 13152699 -0.9944393 0.028735438 0.1013154 0.036444802
2.4924986 0.087227188 0.460134 13744068 -0.99982363 0.011506379 -0.014839983 0.037888326
2.4945903 0.095888138 0.46300757 13349310 -0.99932963 -0.022250805 -0.029072512 0.046231437
2.4929359 0.10596465 0.46002913 13547970 -0.99626404 0.029538691 -0.081151009 0.030176003
2.494874 0.11411004 0.46316355 13284285 -0.99816662 0.052886132 -0.029435709 0.056076564
2.4951577 0.13233194 0.46331957 13087156 -0.97684759 0.20131265 -0.072401859 0.051697243
2.5132554 0.15192549 0.46568078 12888759 -0.97663444 0.17682573 -0.12213849 0.069914341
2.513541 0.1702769 0.4658379 12890287 -0.99105299 -0.032687951 -0.12940475 0.082496487
2.4960086 0.18699756 0.46378762 12823480 -0.97237563 -0.2162198 0.087946564 0.053162932
2.4962924 0.20521948 0.46394363 12691628 -0.99750328 0.012024472 0.069589026 0.044657171
2.4965761 0.22344133 0.46409965 12822962 -0.99333382 0.11517497 -0.0047607576 0.030922424
2.4968598 0.24166325 0.46425566 12822962 -0.97526497 0.19289978 -0.1079254 0.023229701
2.4971435 0.25988513 0.46441165 12560558 -0.99745136 0.052191637 -0.048649833 0.036168866
2.515255 0.28038523 0.46678063 12494251 -0.98094916 -0.0038190642 -0.19422711 0.058569871
2.4977107 0.2963289 0.46472368 12363696 -0.98683918 -0.12806405 -0.098732047 0.070270136
2.4812114 0.31216282 0.46279496 12363183 -0.99885768 -0.010164527 -0.046691764 0.056001291
2.4982781 0.33277267 0.46503571 12493999 -0.97320122 0.22957224 -0.013269634 0.038313132
2.5163977 0.35379076 0.4674091 12428204 -0.97377491 0.18399186 -0.13382603 0.027942969
2.5166836 0.37214217 0.46756622 12230316 -0.95021367 0.18037674 -0.25408322 0.027502343
2.5169692 0.39049357 0.46772334 12165284 -0.94456136 0.040393706 -0.32584071 0.023903001
2.5172548 0.40884498 0.46788046 11968421 -0.95493388 -0.16425046 -0.24723078 0.047123879
2.5175405 0.42719638 0.46803758 12098728 -0.96268386 -0.20079039 -0.18144722 0.044323314
2.49998 0.44210398 0.46597177 11836585 -0.98885405 -0.054346837 -0.13861491 0.055750404
2.5002637 0.4603259 0.46612778 11639206 -0.99116641 -0.022441357 -0.13071188 0.056291033
2.5183976 0.48225051 0.46850893 11901603 -0.9754194 0.048042234 -0.21505558 0.051036008
2.5200319 0.48453519 0.46043777 12100009 -0.9606486 0.04878591 -0.27344882 0.042954713
2.5008311 0.49676961 0.46643981 11704483 -0.98834461 -0.0095064277 -0.15193604 0.047428071
2.5204723 0.50340974 0.46033213 12033446 -0.97800869 0.10272472 -0.18151231 0.035895184
2.5189691 0.51895326 0.46882319 11506843 -0.99507898 -0.083550498 -0.053265963 0.034920085
2.5013983 0.53321344 0.46675181 11441311 -0.99601233 -0.077654913 0.043923438 0.039957747
2.5213532 0.54115891 0.46012086 12097961 -0.95807737 0.098719478 -0.2689651 0.052982908
2.501682 0.55143529 0.46690783 11244449 -0.99313122 -0.11428784 0.025073484 0.033780303
2.5019658 0.56965715 0.46706384 11638179 -0.99729562 0.013275767 0.072285227 0.031363141
2.5217938 0.5600335 0.46001524 12032421 -0.95649225 0.062143046 -0.28506294 0.05601386
2.5022495 0.58787906 0.46721986 11113114 -0.99930567 0.014032997 0.034516037 0.027129587
2.5025332 0.60610098 0.46737587 10849690 -0.99470639 0.10225424 -0.010167435 0.030874936
2.5028167 0.62432289 0.46753189 10980507 -0.9873873 0.15028189 -0.049815968 0.029725127
2.5209687 0.64741307 0.46992302 11177362 -0.9766171 0.18046071 -0.11684594 0.031235449
2.560307 0.64536804 0.46459234 11506591 -0.98995966 -0.027985001 -0.13855241 0.073288567
2.5423751 0.65946144 0.46198606 11309212 -0.91616565 -0.15705886 -0.36874539 0.073105715
2.5039515 0.69721043 0.46815592 10979983 -0.98683822 -0.13046326 -0.09554971 0.026455469
2.504235 0.71543229 0.46831194 10455182 -0.98921627 -0.13717236 -0.051332522 0.027407685
2.5045187 0.7336542 0.46846795 10651797 -0.99024719 -0.13642751 -0.028251039 0.033027507
2.5048025 0.75187606 0.46862397 10847893 -0.99469119 -0.10284356 0.0035606329 0.033591598
2.5050862 0.77009797 0.46877998 10388621 -0.97864842 0.17818488 0.10245685 0.034494326
1.6656811 0.84468269 0.46056575 5447190 -0.55315942 -0.82779133 -0.093681365 0.076287381
1.6974199 0.84910172 0.4672482 6898211 -0.046870667 -0.99877173 -0.016067721 0.041147266
2.5062208 0.84298551 0.46940401 10191494 -0.98417419 -0.13583903 -0.11379381 0.026063789
1.6659688 0.85700673 0.46049678 4988684 -0.61232889 -0.75859118 -0.22269468 0.085895658
1.7291702 0.85353339 0.46137911 7419692 0.14540522 -0.98564029 0.085852601 0.0022330154
1.7546751 0.85385036 0.46659648 7882550 0.13175814 -0.98955238 0.058531899 0.0025174769
1.8169775 0.85940701 0.46608019 8342076 0.078132741 -0.99634457 0.034538507 0.0045683659
2.0187788 0.85539263 0.46516758 8539212 -0.40180507 -0.91144228 0.088463202 0.055751983
2.0408087 0.85049027 0.46846238 8347749 -0.40190893 -0.91138512 0.088579908 0.055522464
1.6662564 0.86933082 0.46042779 4464145 -0.70791608 -0.65432894 -0.26591077 0.071078978
1.8410573 0.86634725 0.46361589 7815992 0.0051394897 -0.99850792 -0.054365627 0.0061578755
1.8695711 0.86697286 0.46831471 8013119 0.069577187 -0.99353993 -0.089651942 0.0068531921
1.8729795 0.86010516 0.4634878 8145204 0.00037857104 -0.99986005 0.0167257 0.0062106093
1.9259465 0.86814779 0.46443829 7883061 -0.0086567244 -0.9979223 -0.063844658 0.0094724009
1.9565235 0.86850959 0.46926591 7883063 0.013353062 -0.99895471 -0.04371823 0.013656258
1.9645591 0.8612746 0.46655136 8080191 -0.081687234 -0.98978764 0.11682325 0.019529004
2.0073447 0.86473972 0.46349975 8278083 -0.5998401 -0.79426426 0.096623763 0.03599865
2.5065045 0.86120743 0.46956003 9994117 -0.99857271 -0.021247102 -0.049001817 0.03971095
2.0075705 0.87924409 0.46362394 7291956 -0.62609285 -0.7779153 0.053437315 0.039948151
2.5067883 0.87942928 0.46971604 9862281 -0.99403065 0.093516223 -0.056193609 0.036320589
2.4929025 -1.3898021 0.47047019 10388865 -0.83076698 -0.53788501 0.14319912 0.02912483
2.4786265 -1.289674 0.4703674 11508124 -0.92142552 0.2979922 -0.24935055 0.070650756
2.4795074 -1.2519249 0.47015613 12362413 -0.97723484 -0.043413695 -0.20767152 0.023872063
2.4799478 -1.2330503 0.47005051 12363183 -0.97068304 0.090332299 -0.22274317 0.033486456
2.4792037 -1.1251875 0.47041544 12495018 -0.93693149 0.26195511 -0.23138478 0.061866235
2.5006688 -1.1276355 0.47198784 13087928 -0.96002668 -0.17639144 -0.21733579 0.050349597
2.4794874 -1.1069657 0.47057146 12758963 -0.9586435 0.011998929 -0.28435677 0.080313146
2.4803383 -1.0523 0.4710395 13350327 -0.96097308 0.1299279 -0.24423261 0.034122817
2.4806221 -1.0340781 0.47119552 13350074 -0.97941279 0.1072941 -0.17099267 0.033802785
2.4809058 -1.0158563 0.47135153 13482175 -0.99567693 0.062727779 -0.068502799 0.025411563
2.4811895 -0.99763447 0.47150752 13350591 -0.9910394 0.13221894 0.018950254 0.030013217
2.4814732 -0.97941256 0.47166353 13613761 -0.98778552 0.12541434 0.09247198 0.025765691
2.4817567 -0.9611907 0.47181955 13418173 -0.98253953 0.058715489 0.1765462 0.012638247
2.4820404 -0.94296879 0.47197556 13417663 -0.99484664 0.082809009 0.058505729 0.031775873
2.4823241 -0.92474693 0.47213158 13877446 -0.9702853 0.20974903 -0.12063088 0.037541464
2.4826078 -0.90652502 0.4722876 13876935 -0.9695102 0.15905678 -0.1864159 0.036833115
2.5006158 -0.89431459 0.47471243 14008258 -0.98284 0.099071503 -0.15559714 0.036178336
2.483175 -0.87008119 0.47259963 13680583 -0.9937346 -0.079503693 -0.07855399 0.027522737
2.4834588 -0.85185933 0.47275561 14403536 -0.99652499 -0.019857487 -0.080892406 0.033886936
2.4837425 -0.83363748 0.47291163 14074571 -0.99498582 0.058040962 -0.081452422 0.03211987
2.5017586 -0.82090896 0.4753409 14404053 -0.99536633 0.039007362 -0.087888129 0.030298116
2.4843099 -0.79719365 0.47322366 14206157 -0.99112439 0.095465526 -0.092513353 0.033729058
2.4845934 -0.77897179 0.47337967 14271693 -0.99311626 -0.019008925 -0.11558053 0.027098497
2.5026157 -0.76585478 0.47581229 14207186 -0.98929662 0.085262619 -0.11841644 0.025267929
2.4851608 -0.74252802 0.4736917 14470358 -0.9892236 0.085355751 -0.11895828 0.026595406
2.5031872 -0.72915202 0.47612652 14470612 -0.99313033 -0.016941801 -0.11578059 0.026684931
2.5034728 -0.71080071 0.47628364 14799323 -0.99283451 -0.020931374 -0.1176504 0.026030609
2.4860117 -0.68786234 0.47415972 14404566 -0.99840248 -0.027410684 -0.049408037 0.044633426
2.4862955 -0.66964048 0.47431573 14404819 -0.99466312 0.081843168 0.062824868 0.061105423
2.5043299 -0.65574652 0.47675499 14207186 -0.99198622 0.12267189 -0.030250194 0.045619842
2.5046155 -0.63739508 0.47691211 14798296 -0.99805075 0.056628827 -0.026226312 0.046205245
2.5049012 -0.61904377 0.47706923 14338772 -0.99916011 -0.031404361 -0.026322993 0.028914727
2.5051868 -0.60069233 0.47722635 14931679 -0.99889708 0.046945609 -0.00090931362 0.02832179
2.5054727 -0.5823409 0.47738346 14864087 -0.993729 0.11181525 0.00025461617 0.025947178
