# .PCD v0.7 - Point Cloud Data file format
VERSION 0.7
FIELDS x y z rgb normal_x normal_y normal_z curvature
SIZE 4 4 4 4 4 4 4 4
TYPE F F F U F F F F
COUNT 1 1 1 1 1 1 1 1
WIDTH 538
HEIGHT 1
VIEWPOINT 0 0 0 1 0 0 0
POINTS 538
DATA ascii
2.5549014 0.59269315 0.57100809 11375516 -0.9913047 -0.010331891 -0.1311805 0.027049121
2.55616 0.61125857 0.57145363 11308696 -0.98482925 0.11923815 -0.12607001 0.021984357
2.5574186 0.62982392 0.57189918 11177629 -0.99036956 0.049847595 -0.12916435 0.025475921
2.5586772 0.64838934 0.57234472 11046302 -0.99490035 0.044788852 -0.090373062 0.023760254
2.5599358 0.6669547 0.57279027 10915484 -0.99740744 -0.031949826 -0.064479575 0.025312522
2.5611944 0.68552005 0.57323581 10981276 -0.99986029 -0.0025537175 0.016520388 0.015410225
2.562453 0.70408547 0.57368135 10652565 -0.99195862 0.12653378 -0.0026997775 0.013321979
2.5637116 0.72265083 0.5741269 10653084 -0.99361515 0.099489704 -0.053205371 0.019554207
2.5649703 0.74121624 0.5745725 10520726 -0.99607199 0.070712954 -0.05329429 0.019838899
2.5662289 0.7597816 0.57501805 10323349 -0.99789733 -0.022820799 -0.060664359 0.03428214
2.5674875 0.77834702 0.57546359 10061201 -0.97180045 -0.22642542 -0.065844394 0.042710692
2.1020708 0.79271364 0.57918108 8478306 -0.26051527 -0.9649567 -0.031469248 0.02890343
2.5687461 0.79691237 0.57590914 10455186 -0.986229 -0.16267043 -0.029844791 0.067525573
1.7926633 0.80700177 0.57149905 7817017 0.15623885 -0.98521006 -0.070360787 0.0030762325
1.8526372 0.80970013 0.57439882 8541997 0.039542757 -0.99121809 -0.12618682 0.0071576159
1.8709753 0.80486101 0.57901496 8475699 0.018592142 -0.99727869 -0.071341388 0.007313895
2.0259342 0.80507672 0.57622713 7819840 -0.088752836 -0.99368548 0.068644784 0.020286039
2.5521307 0.80977309 0.57303643 10322830 -0.99958879 -0.027165886 -0.0091808224 0.060965415
1.8353498 0.81474328 0.5700503 8146487 0.061463349 -0.99132645 -0.11616413 0.0077281892
1.9262644 0.81654835 0.57982332 8474422 -0.001409561 -0.99956661 0.029405518 0.0043043834
1.945176 0.81222004 0.57100523 8212804 -0.068880133 -0.99453324 0.078480996 0.0043710642
2.5533807 0.82820916 0.57347888 9927823 -0.99836808 0.056625284 -0.0074007064 0.046274796
2.5546305 0.84664547 0.57392132 10256275 -0.99975055 0.012073062 -0.018791556 0.027636863
2.5558803 0.86508179 0.57436377 10058894 -0.9871279 0.12892313 -0.094643444 0.028051868
2.5571301 0.88351798 0.57480621 9731723 -0.97866571 0.1957235 -0.062496033 0.031879075
2.5762978 0.90830481 0.57858241 9599875 -0.97568017 0.21808612 0.022058897 0.047432233
2.5775564 0.92687011 0.57902795 9140096 -0.99703526 0.074347392 0.01982818 0.056187261
2.5608797 0.93882644 0.57613355 9204601 -0.99893093 -0.046123661 -0.003098309 0.046230674
2.3894684 -1.4499778 0.58863717 11113619 -0.98776925 -0.15200996 0.034711882 0.02804376
2.3907096 -1.4316707 0.58907652 11180174 -0.99466306 -0.10174435 0.017131971 0.030314043
2.3919506 -1.4133636 0.58951586 11311245 -0.9998067 0.018499736 -0.0066631213 0.026684245
2.3931918 -1.3950566 0.58995521 11770518 -0.99237782 0.015420068 0.12226435 0.040580377
2.4230881 -1.1830614 0.58035713 13153974 -0.98043895 0.18822618 -0.057535782 0.046146691
2.4243379 -1.1646252 0.58079958 13548479 -0.97884834 0.18353836 -0.090385921 0.035298891
2.4255877 -1.1461891 0.58124202 13482688 -0.99090672 0.12760048 -0.042684712 0.030186156
2.4268377 -1.1277529 0.58168447 13549506 -0.98909253 0.13484436 -0.059271581 0.034911387
2.4280875 -1.1093167 0.58212692 13615817 -0.98684245 -0.072444089 -0.14454719 0.043189444
2.4305871 -1.0724443 0.58301181 13680581 -0.94774377 0.035898168 -0.31700647 0.035289977
2.4318371 -1.0540081 0.58345431 13483204 -0.90231216 0.17195979 -0.39530066 0.053863022
2.4330869 -1.0355719 0.58389676 14075852 -0.92903847 0.067131996 -0.36384177 0.046534054
2.4343367 -1.0171357 0.5843392 14141132 -0.94300646 0.2176926 -0.25169185 0.048801064
2.418529 -0.99173158 0.5813812 14142415 -0.94540077 0.13881046 -0.2948713 0.059880745
2.4368365 -0.98026329 0.58522409 14339542 -0.94778597 0.10164259 -0.30227557 0.058908634
2.4380863 -0.9618271 0.58566654 14405333 -0.89908636 0.16951473 -0.40361932 0.042731967
2.4393361 -0.94339103 0.58610898 14339794 -0.92535675 0.14389075 -0.35072845 0.030302951
2.4405861 -0.92495471 0.58655143 14273231 -0.91188544 0.20503269 -0.35556519 0.037981149
2.4418359 -0.90651852 0.58699387 14470358 -0.97366059 -0.00026009607 -0.22800235 0.035479635
2.4430857 -0.88808233 0.58743632 14470361 -0.96212798 -0.064940311 -0.26475 0.030058058
2.4443355 -0.86964613 0.58787876 14601945 -0.94903541 0.010528445 -0.31499359 0.032870069
2.4455855 -0.85120994 0.58832121 14601687 -0.90178591 0.24865901 -0.35348383 0.048008036
2.4468353 -0.83277386 0.58876365 14470358 -0.93162471 0.27633896 -0.23603441 0.072254993
2.4846325 -0.50382292 0.58171493 14930652 -0.9753896 0.15728579 -0.15451989 0.036796112
2.4858911 -0.48525751 0.58216047 14602715 -0.97640371 0.18146096 -0.11708028 0.035691764
2.4871497 -0.46669215 0.58260602 14535641 -0.9946422 0.10332217 -0.0033823925 0.056014601
2.4884083 -0.44812679 0.58305156 14601169 -0.99875504 -0.04217634 -0.026636861 0.050651316
2.4723516 -0.4266023 0.58012915 14339543 -0.9993161 0.013448762 0.034446627 0.059038311
2.4736013 -0.40816611 0.58057159 14864857 -0.9902606 0.10150727 0.09529011 0.058613334
2.4921842 -0.3924306 0.5843882 14470358 -0.96884495 0.24356231 0.044909608 0.056885306
2.4934428 -0.37386525 0.58483374 14470359 -0.99735081 0.060365271 -0.040587805 0.055823483
2.5120516 -0.35774213 0.58865958 14207954 -0.99378359 0.076415442 -0.080962472 0.04453709
2.49596 -0.33673447 0.58572483 13945297 -0.96527261 0.13268326 -0.22504219 0.067628346
2.4972186 -0.31816906 0.58617038 14010577 -0.96556562 -0.008862243 -0.26000881 0.075318784
2.4984772 -0.2996037 0.58661598 13944015 -0.98164624 0.05503545 -0.18259734 0.058557935
2.4823503 -0.2791127 0.58366877 14141393 -0.98845303 0.048384465 -0.1435954 0.053082675
2.4836001 -0.2606765 0.58411121 14009548 -0.99192768 0.10810281 -0.066281639 0.050869752
2.5022531 -0.2439075 0.58795261 13878221 -0.96370673 0.25977141 -0.061548647 0.047819838
2.5035117 -0.22534214 0.58839816 14075343 -0.9471035 0.27660486 -0.16274153 0.046067521
2.4910994 -0.15005934 0.58676589 13811401 -0.95137143 -0.23068459 -0.20414953 0.045080185
2.4948487 -0.094750747 0.58809322 13417158 -0.96006656 -0.19223222 -0.20327073 0.061155997
2.4786172 -0.07581009 0.58510888 13417411 -0.9581157 -0.0028738501 -0.28636718 0.066427097
2.4973485 -0.057878368 0.58897811 13285823 -0.93398947 0.21418078 -0.28599003 0.044813812
2.4985983 -0.039442159 0.58942056 13285825 -0.93315136 0.25209501 -0.25627467 0.04363966
2.4998481 -0.021005973 0.589863 13416641 -0.98489976 0.0030918852 -0.17309818 0.023134446
2.5442624 0.14759459 0.58214736 12692408 -0.97728443 0.13144113 0.16624805 0.040875986
2.5455298 0.16628917 0.582596 12562354 -0.98867941 -0.010688132 0.1496622 0.025529016
2.5304651 0.20224091 0.58014864 12626614 -0.98813516 0.0035221465 0.15354681 0.020991001
2.5317237 0.2208063 0.58059424 12626355 -0.98489451 0.090203024 0.14780502 0.0078455694
2.5329823 0.23937166 0.58103979 12560562 -0.99139702 0.12579492 0.03616095 0.016285924
2.534241 0.25793704 0.58148533 12626102 -0.98710167 0.15755846 0.028383344 0.023974974
2.5354996 0.27650243 0.58193088 12430263 -0.98852259 0.13385406 0.070044026 0.026977483
2.5544014 0.29715121 0.58573651 12231856 -0.99898881 0.021561285 0.039452154 0.02742153
2.5380168 0.3136332 0.58282197 12494518 -0.99782139 -0.03565155 0.055511318 0.024579616
2.5392754 0.33219862 0.58326751 12232116 -0.99956238 0.0044731316 -0.029241482 0.030999614
2.540534 0.35076398 0.58371305 12098990 -0.99596995 0.083885714 -0.031735148 0.022807494
2.5417926 0.36932939 0.5841586 12230576 -0.99839687 0.043102913 0.036685694 0.017926916
2.5430512 0.38789481 0.58460414 12230317 -0.99515307 0.041096747 0.0893391 0.0091915475
2.5443099 0.40646017 0.58504969 12296620 -0.99790323 0.056950558 0.030753076 0.018125519
2.5455685 0.42502558 0.58549523 12098730 -0.98620647 0.16223978 -0.032788143 0.017461678
2.5468271 0.44359094 0.58594078 12099243 -0.96458316 0.23908804 -0.11142857 0.016080767
2.5480857 0.46215636 0.58638632 11835816 -0.97222024 0.19632371 -0.12745546 0.028938351
2.5506029 0.49928707 0.58727747 11771046 -0.98526031 -0.11228279 -0.12905338 0.05028503
2.5518615 0.51785249 0.58772302 11638942 -0.9852584 -0.11138792 -0.12984113 0.051212817
2.5353632 0.532655 0.58476812 11442844 -0.98622495 0.037204098 -0.16117126 0.045376573
2.5543787 0.55498326 0.58861411 11442331 -0.99247354 0.024739474 -0.11993441 0.053645201
2.5556374 0.57354861 0.58905965 11309725 -0.99266177 -0.022364944 -0.11883803 0.032302447
2.556896 0.59211403 0.5895052 11637926 -0.99924636 0.022095665 0.031914465 0.017728703
2.5581546 0.61067945 0.58995074 11375007 -0.99955624 0.028369268 -0.0090867514 0.018262872
2.0696514 0.79376417 0.58628321 8345168 -0.33166623 -0.94338775 0.0041342396 0.04041585
1.8540511 0.80928952 0.58751255 8409405 0.036639661 -0.99312019 -0.11121996 0.0063936771
1.995465 0.8056882 0.58298838 8409145 -0.085745744 -0.99245298 0.087663464 0.0097178891
2.0589633 0.80396765 0.58388615 8149595 -0.34964761 -0.93664509 0.021037735 0.039964072
1.8367499 0.81433678 0.58303541 7817521 0.072189294 -0.98873878 -0.13108918 0.0076717171
1.9562635 0.8158145 0.58721018 8147264 -0.096189141 -0.99437249 0.044396531 0.0052530379
1.9857781 0.81552124 0.58074683 8015427 -0.10142487 -0.9888764 0.10879564 0.0073531675
2.403821 -1.4970518 0.59120399 10916499 -0.94804341 -0.3097277 0.072681412 0.014026504
2.405071 -1.4786156 0.59164643 11245205 -0.94069487 -0.33770323 0.032399718 0.020722877
2.3944328 -1.3767496 0.59039456 11509145 -0.99794823 0.061729122 -0.016995661 0.037140604
2.395674 -1.3584427 0.5908339 10658466 -0.98210734 0.18161625 -0.049807578 0.065195471
2.396915 -1.3401356 0.59127325 11636875 -0.98629683 0.082033359 0.14314029 0.034598518
2.3981562 -1.3218286 0.59171259 12494765 -0.99494797 0.016645644 0.099002279 0.022724513
2.3993971 -1.3035216 0.59215194 12626858 -0.99207014 0.074549019 0.10118941 0.024966352
2.4006383 -1.2852147 0.59259129 12692144 -0.9860065 0.13661118 0.095543943 0.02245358
2.4018795 -1.2669076 0.59303063 12495789 -0.99664909 0.023639474 0.078306511 0.012477593
2.4031205 -1.2486006 0.59346998 12562354 -0.99845254 0.046747264 0.030120531 0.022398144
2.4043617 -1.2302935 0.59390932 12824247 -0.97735018 0.20458744 -0.05413555 0.03843246
2.4056027 -1.2119867 0.59434867 13153210 -0.9130615 0.40777722 -0.0060331821 0.034306865
2.4068439 -1.1936796 0.59478807 13285307 -0.96186882 0.27304003 0.016046986 0.047635831
2.4250686 -1.1836364 0.59872562 13088698 -0.97209275 0.21206562 0.10031907 0.04261462
2.4263184 -1.1652002 0.59916806 13154237 -0.99266732 0.11163545 0.046358813 0.031810235
2.4275682 -1.1467642 0.59961051 13548229 -0.98732877 0.15525538 -0.032828394 0.029952621
2.4142904 -1.0838376 0.59742415 13615301 -0.9801864 -0.069462076 -0.18549845 0.041838769
2.4167726 -1.0472236 0.59830284 13484485 -0.97305751 0.1452646 -0.17904554 0.030971637
2.4180136 -1.0289166 0.59874219 13878473 -0.9863528 0.090765439 -0.13736746 0.043181196
2.4652305 -0.82001364 0.59263772 14602712 -0.93488717 0.20515433 -0.28965113 0.081148081
2.4664891 -0.80144823 0.59308326 14799323 -0.99158406 -0.061095633 -0.1141421 0.059218634
2.4505849 -0.77746516 0.59009099 14536921 -0.99019927 -0.1169408 -0.076356031 0.0308409
2.4518347 -0.75902897 0.59053344 14930910 -0.99925297 -0.038286552 -0.0052582775 0.031419415
2.4702649 -0.74575204 0.5944199 14930910 -0.99801612 0.042077772 0.046833001 0.022288075
2.4543343 -0.72215658 0.59141833 14865117 -0.98085964 0.15973701 0.11134834 0.02951844
2.4555843 -0.70372039 0.59186083 15194081 -0.95194048 0.30358458 0.040567737 0.030344909
2.4740407 -0.69005597 0.59575653 14471128 -0.96413642 0.24761884 -0.095529556 0.034501255
2.4752994 -0.67149055 0.59620208 14404568 -0.98545277 0.10726165 -0.13182515 0.040965274
2.476558 -0.65292513 0.59664762 14799323 -0.98024106 -0.096897677 -0.17244817 0.016349602
2.4605837 -0.62997562 0.59363061 15062496 -0.95239556 -0.27363893 -0.13440415 0.0265733
2.4618335 -0.61153936 0.59407306 14733784 -0.94463551 -0.27088946 -0.18515605 0.032510284
2.4458332 -0.5889774 0.59104687 14800091 -0.98899812 0.035623066 -0.14357488 0.06912493
2.4470744 -0.57067037 0.59148622 14800093 -0.95886016 0.2373382 -0.15574914 0.057304826
2.4655831 -0.55623084 0.59540039 14602714 -0.96192336 0.26932734 -0.046543375 0.049678035
2.4668329 -0.53779465 0.59584284 14667737 -0.94473219 0.32205755 -0.061318994 0.034432456
2.4680827 -0.5193584 0.59628528 14733784 -0.98784441 0.13462396 -0.077716254 0.044779789
2.4705825 -0.48248601 0.59717017 14272979 -0.96020919 0.21031973 -0.1837495 0.044704068
2.4718323 -0.46404976 0.59761262 14535641 -0.9939872 0.029592579 -0.10542165 0.046541836
2.4780815 -0.37186885 0.59982485 14601944 -0.98332673 0.082119204 -0.16225 0.059966508
2.5221906 -0.20818554 0.5922488 14140367 -0.9422397 0.18947162 -0.27619708 0.038792666
2.523458 -0.18949097 0.59269744 13812428 -0.95131767 0.05697507 -0.30290022 0.061882809
2.5247254 -0.17079639 0.59314609 13549257 -0.93210167 -0.2509816 -0.26114127 0.049216338
2.5098045 -0.13251518 0.59062588 14008780 -0.94445318 -0.23060507 -0.23415707 0.050165366
2.5110631 -0.11394979 0.59107143 13615052 -0.98100519 -0.12785536 -0.14588326 0.052110419
2.5010982 -0.0025697649 0.59030551 13285055 -0.97246987 0.053514972 -0.22680078 0.033504803
2.5023479 0.015866427 0.59074795 13483206 -0.9728018 0.11568672 -0.20068201 0.043989539
2.521132 0.034573279 0.59463584 13350850 -0.96421891 0.26352549 -0.028916674 0.062671706
2.5223906 0.053138681 0.59508139 13153212 -0.97251922 0.14527281 0.18194003 0.055192791
2.5236492 0.071704067 0.59552693 13153212 -0.99403948 -0.066406131 0.086462632 0.079387516
2.5073473 0.089611202 0.59251773 12889787 -0.9990015 0.0058666519 0.044290278 0.083186433
2.5085971 0.10804743 0.59296018 12890814 -0.96290314 0.26977187 -0.0063833375 0.066165447
2.5274251 0.12740025 0.59686357 12692921 -0.93187499 0.36261895 0.010797807 0.04363225
2.5299423 0.16453102 0.59775466 12692920 -0.99841583 -0.0050108638 0.056042984 0.027367786
2.5312009 0.18309641 0.5982002 12692918 -0.99531496 -0.096535675 -0.0053806077 0.031168774
2.5324595 0.2016618 0.59864575 12692408 -0.99906373 -0.011861579 -0.041605253 0.023983687
2.5337181 0.22022718 0.59909135 12692146 -0.99537235 0.068375066 -0.067518488 0.019892631
2.5349767 0.23879254 0.5995369 12691378 -0.99600369 0.074969158 0.048541389 0.0076057813
2.5362353 0.25735793 0.59998244 12625587 -0.98922908 0.14637481 0.00049374998 0.016256562
2.567075 0.48409694 0.59022301 12032938 -0.99057293 0.0098529197 -0.13663167 0.037321571
2.5594132 0.6292448 0.59039629 11309725 -0.9960503 0.088309526 -0.0092365528 0.018038433
2.5606718 0.64781022 0.59084183 11375005 -0.99854571 0.053792622 -0.0035991222 0.015702927
2.5619304 0.66637558 0.59128737 10718358 -0.99733144 0.046834018 0.056005303 0.0082764579
2.563189 0.68494093 0.59173292 10718617 -0.99203473 0.063378878 0.10885867 0
2.5644476 0.70350635 0.59217846 10783898 -0.99198848 0.064675741 0.10851694 0
2.5657063 0.72207171 0.59262401 10455196 -0.99203873 0.063836291 0.10855518 0
2.5669649 0.74063712 0.59306961 10651542 -0.99806404 0.061443616 -0.0096393237 0.018801793
2.5682235 0.75920248 0.59351516 10586004 -0.99758536 -0.050972797 -0.047173008 0.033914648
2.5694821 0.7777679 0.5939607 10192786 -0.97063726 -0.23648471 -0.044026613 0.047156531
2.5528612 0.79076171 0.59096241 10192022 -0.95479363 -0.26791894 -0.12879691 0.056170747
1.8820264 0.80860555 0.59479916 8080955 0.027941203 -0.99820411 -0.052989956 0.0072943326
1.9969941 0.80524421 0.59716976 8409409 -0.069272004 -0.99229681 0.10270574 0.0092289206
2.060544 0.80350876 0.59854454 9332576 -0.4152225 -0.90935695 0.025695767 0.03794783
2.554111 0.80919802 0.59140486 9929102 -0.99165529 -0.098899856 -0.082696259 0.065628491
1.9277371 0.81612068 0.5934822 8475713 0.033915915 -0.99938446 0.0089719156 0.005194365
1.976639 0.81068128 0.59219366 8213057 -0.085250877 -0.99071652 0.10589255 0.0057869167
2.0498354 0.81354761 0.59606016 7819580 -0.36586839 -0.93008369 0.032933328 0.038229872
2.555361 0.8276341 0.5918473 9994130 -0.99649 0.048081476 -0.068526104 0.038380142
2.5566108 0.84607041 0.59228975 10190993 -0.99719363 0.046066072 0.059014995 0.011608732
2.5578606 0.86450672 0.59273219 9665419 -0.99748784 0.024647849 0.066412188 0.01111273
2.5591104 0.88294291 0.59317464 9599883 -0.96736139 0.24553019 0.062665142 0.020858694
2.5603604 0.90137899 0.59361708 9795973 -0.97919774 0.19848154 0.04215385 0.040142298
2.5616102 0.9198153 0.59405953 9336705 -0.9955892 0.071359791 0.060909458 0.057967726
2.56286 0.93825138 0.59450197 9073792 -0.99531716 0.018031318 0.0949663 0.054706529
2.5641098 0.95668769 0.59494442 9007222 -0.99203187 -0.074623078 0.10151008 0.049376931
2.4058015 -1.4976269 0.60957241 10982801 -0.93353987 -0.34852484 0.083867736 0.017651595
2.3901939 -1.4688556 0.6064375 10982803 -0.95659661 -0.2891506 0.036260914 0.024844307
2.3914349 -1.4505488 0.60687685 11113625 -0.98732966 -0.15116283 -0.048269402 0.032751705
2.3926761 -1.4322417 0.60731626 11376789 -0.99934494 -0.034143332 0.011998498 0.035264291
2.3939171 -1.4139346 0.60775554 11311509 -0.99791944 0.013602431 0.063021846 0.032118961
2.3782654 -1.3858095 0.60460508 11309977 -0.99658269 -0.080550291 -0.018291974 0.061064728
2.3963993 -1.3773206 0.60863423 11378327 -0.99448019 0.00039427681 -0.1049238 0.063877165
2.3976405 -1.3590137 0.60907364 11512484 -0.95958155 0.25493783 -0.11920588 0.060166992
2.3988814 -1.3407066 0.60951293 4597538 -0.97609174 0.1807663 -0.12070013 0.058335103
2.4001226 -1.3223996 0.60995233 11904685 -0.99733627 0.041563556 -0.059940886 0.031225253
2.388124 -1.2403871 0.60809505 12693421 -0.99498564 0.097559087 -0.022041254 0.036781091
2.4288182 -1.128328 0.60005295 13351877 -0.99809796 0.061630283 -0.0014785231 0.044745397
2.430068 -1.1098918 0.6004954 13549508 -0.99052775 -0.13701564 0.0090284729 0.031483125
2.4325676 -1.0730194 0.60138035 13746885 -0.97900289 -0.030972501 -0.20147969 0.047929831
2.4363172 -1.0177108 0.60270768 13878473 -0.97595197 0.17116766 -0.13497956 0.039436914
2.4375672 -0.99927467 0.60315013 14011086 -0.97561938 0.08775425 -0.20116158 0.052855209
2.438817 -0.98083836 0.60359257 14733271 -0.96272528 0.055769175 -0.26466927 0.052962255
2.4229779 -0.95568866 0.60049957 14338515 -0.92510408 0.20147447 -0.32185477 0.044375282
2.4413166 -0.94396609 0.60447747 14471126 -0.9433791 0.22607468 -0.24274693 0.041832436
2.4425666 -0.92552978 0.60491991 14601169 -0.95598799 0.26088971 -0.13425212 0.041702136
2.4438164 -0.90709358 0.60536236 14602196 -0.99043304 0.10965647 -0.08377333 0.034523774
2.4450662 -0.88865739 0.6058048 14667478 -0.98722553 -0.12777248 -0.095183417 0.028841751
2.446316 -0.8702212 0.60624731 14667478 -0.97789979 -0.086638585 -0.19027844 0.037549477
2.4304247 -0.84584659 0.6031357 14536151 -0.89612383 0.2726461 -0.3501803 0.048350818
2.4488158 -0.83334893 0.6071322 14536152 -0.86960965 0.30869046 -0.38534316 0.037351947
2.4513154 -0.79647642 0.60801709 14471639 -0.96536446 0.016127821 -0.26040626 0.055858385
2.4525654 -0.77804023 0.60845947 14799577 -0.99219829 -0.020452172 -0.12298118 0.051231518
2.4538152 -0.75960404 0.60890198 14733784 -0.99269122 0.11445201 0.038275082 0.023812292
2.455065 -0.74116784 0.60934436 14865886 -0.9943648 0.058811918 0.088203266 0.012614968
2.4563148 -0.72273165 0.60978687 14799323 -0.99060994 0.13578907 0.015913503 0.045265142
2.446559 -0.6078555 0.6088472 14601945 -0.97844619 -0.18971933 -0.081545383 0.039368041
2.4477999 -0.58954841 0.60928655 14734298 -0.99630928 0.074637868 0.042392634 0.0605422
2.4490411 -0.57124144 0.60972589 14602966 -0.95610565 0.28130972 0.082017906 0.040930461
2.4866269 -0.50440204 0.60021204 14667991 -0.96720767 0.15329723 -0.20250775 0.035261083
2.4904027 -0.44870591 0.60154867 14535894 -0.99556887 0.03707552 0.086418405 0.060952917
2.4916613 -0.43014055 0.60199428 14338772 -0.9882099 0.098312236 0.1173709 0.059607979
2.4929199 -0.41157514 0.60243976 14207954 -0.99836534 0.032824412 0.046789378 0.060726911
2.4941785 -0.39300972 0.60288537 14535894 -0.97267848 0.18833067 -0.1357501 0.062028382
2.4966958 -0.35587895 0.60377645 14207438 -0.97075534 -0.033011578 -0.23779058 0.062821947
2.4805813 -0.3349964 0.6007098 13944784 -0.9264847 0.028060902 -0.37528491 0.077211775
2.499213 -0.31874818 0.60466754 14075601 -0.90444803 0.10029455 -0.41462612 0.088566139
2.5004716 -0.30018282 0.60511309 14009808 -0.94446993 0.21520327 -0.24832255 0.088636369
2.5017302 -0.2816174 0.60555863 14206929 -0.98536962 0.14269145 -0.093198292 0.065961324
2.5029888 -0.26305205 0.60600418 14009550 -0.99225539 0.12418403 0.0027601721 0.040915024
2.5042474 -0.24448662 0.60644972 14075601 -0.99218917 0.10257671 -0.070983626 0.052475609
2.505506 -0.22592126 0.60689527 13877709 -0.94726855 0.046618041 -0.31703174 0.065702789
2.5067647 -0.20735586 0.60734081 14140113 -0.91559964 0.13660276 -0.37817585 0.053918067
2.5080233 -0.18879047 0.60778636 13483463 -0.87208343 0.04091537 -0.48764381 0.047181681
2.5092819 -0.17022508 0.6082319 13615049 -0.90051109 -0.18519937 -0.39342228 0.051566571
2.4930799 -0.15063442 0.60513425 13746378 -0.88505965 -0.232876 -0.40303624 0.049369369
2.4943297 -0.13219823 0.60557675 14075343 -0.91524255 -0.17514338 -0.36284423 0.04125509
2.4955795 -0.11376204 0.60601914 13944017 -0.93975431 -0.073270068 -0.33390629 0.035504624
2.4968293 -0.095325842 0.60646164 13548744 -0.93226653 -0.20671321 -0.2968986 0.037808351
2.4980793 -0.076889649 0.60690403 13548999 -0.95047975 0.063621864 -0.3042047 0.073278017
2.4818249 -0.058074139 0.60378796 13416641 -0.92145586 0.25911561 -0.28944471 0.051743157
2.5005789 -0.040017247 0.60778892 13745349 -0.95881909 0.23320779 -0.16211165 0.045587987
2.5018287 -0.021581061 0.60823143 13613509 -0.99267799 0.088523544 -0.082183026 0.050050557
2.5030787 -0.0031448528 0.60867387 13285058 -0.99626625 -0.014473727 -0.085112505 0.033698559
2.5043285 0.015291341 0.60911632 13022912 -0.96217865 0.24311747 -0.12290718 0.045004923
2.5055783 0.033727534 0.60955876 13087676 -0.92175418 0.38770545 -0.007333674 0.039406113
2.5462706 0.14701143 0.60077316 12824253 -0.98627824 0.13403657 0.096381843 0.041842796
2.5374939 0.27592331 0.60042799 12560821 -0.99356002 0.11229315 0.015122429 0.016273972
2.5387526 0.29448867 0.60087353 12429489 -0.99903214 0.024566775 -0.036486786 0.021017605
2.5400112 0.31305408 0.60131907 12429489 -0.99930757 0.021292664 0.030512676 0.017297247
2.5412698 0.3316195 0.60176462 12297650 -0.99647212 0.015331803 0.082512826 0.0081017269
2.5425284 0.35018486 0.60221016 12296367 -0.99202484 0.064487822 0.10829645 0
2.543787 0.36875027 0.60265577 11967406 -0.99931175 0.037093312 -0.00035977364 0.01910444
2.5450456 0.38731569 0.60310125 12100270 -0.9979279 0.0044955383 -0.06418559 0.023242181
2.5463042 0.40588105 0.60354686 12165032 -0.99588478 0.076547302 0.04851805 0.0075860349
2.5475628 0.42444646 0.60399234 11902630 -0.99338049 0.10106758 0.054594915 0.0086186212
2.5488214 0.44301182 0.60443795 12033446 -0.98329818 0.17276412 -0.057247147 0.031102892
2.5500801 0.46157724 0.60488343 11901860 -0.97558999 0.11585778 -0.18655075 0.040303268
2.5690832 0.48351383 0.60884881 11835810 -0.9807511 0.10445059 -0.16497712 0.037921816
2.5525973 0.49870795 0.60577458 11639460 -0.98780227 0.019181609 -0.15452749 0.045816556
2.5538559 0.51727337 0.60622013 11376548 -0.99605107 -0.088704869 0.0037024021 0.049667012
2.5551145 0.53583872 0.60666567 11441827 -0.99737453 0.042002305 -0.058990039 0.047637489
2.5563731 0.55440414 0.60711122 11376547 -0.99254066 0.046410162 -0.11273471 0.053876575
2.5576317 0.5729695 0.60755676 11309727 -0.98742425 0.04821701 -0.15056072 0.030298918
2.5588903 0.59153491 0.60800231 11375005 -0.99751168 0.068472028 -0.016796038 0.025228979
2.560149 0.61010033 0.60844785 11047070 -0.99515611 0.093704328 0.029730458 0.018186184
2.5614076 0.62866569 0.60889339 11047069 -0.99898618 0.036517955 0.026326299 0.018346626
2.5626662 0.6472311 0.60933894 10718617 -0.99548697 0.089530833 -0.031464312 0.023303099
2.5639248 0.66579646 0.60978448 10653337 -0.9920072 0.12616867 -0.0017713235 0.014066285
2.0712409 0.79330266 0.60102487 8213315 -0.35340646 -0.93522346 -0.021469576 0.040271748
2.5548418 0.79018658 0.60933077 10256784 -0.94000113 -0.25475991 -0.22692578 0.071099028
2.5381896 0.80292618 0.6061976 9994894 -0.96592331 -0.17084071 -0.19443661 0.074829541
1.9292098 0.81569308 0.60714114 8278585 0.016517172 -0.99985588 -0.0039332346 0.0069583198
1.9577599 0.81537998 0.60108876 7884591 -0.084132649 -0.9924652 0.089076146 0.006055302
1.98882 0.81463796 0.60895807 8147011 -0.098232895 -0.99050438 0.096184425 0.00691455
2.36553 -1.3590758 0.61964971 11508385 -0.95721817 0.22179985 -0.18584464 0.071605332
2.4013636 -1.3040926 0.61039162 12233899 -0.99704671 0.070004076 -0.031581044 0.028006935
2.4026048 -1.2857857 0.61083102 12626868 -0.99588478 0.06614434 -0.061956063 0.030786404
2.403846 -1.2674786 0.61127031 12692911 -0.99960959 0.02110517 -0.01831013 0.037157193
2.4063282 -1.2308645 0.612149 12955829 -0.98010433 0.19219051 0.049582243 0.045547534
2.4075692 -1.2125577 0.61258841 12890297 -0.89427966 0.44292265 0.063901223 0.038266338
2.4257994 -1.2026477 0.61665154 12956860 -0.93789011 0.34341675 0.049265735 0.03589588
2.4270492 -1.1842115 0.61709404 13352131 -0.97928482 0.20159389 -0.019005323 0.053892151
2.4112926 -1.1576366 0.61390644 13352127 -0.98330235 0.1700567 -0.064786084 0.03892526
2.4295487 -1.1473392 0.61797893 13614270 -0.99136639 0.12009208 -0.052636374 0.032844603
2.4307988 -1.128903 0.61842132 13483454 -0.99100685 0.077711292 -0.10893305 0.039439477
2.4320486 -1.1104668 0.61886382 13614788 -0.97820419 -0.16489294 -0.12620194 0.037329275
2.4162569 -1.0844086 0.61566383 13483463 -0.97719437 -0.15758546 -0.14233057 0.056344222
2.4174979 -1.0661017 0.61610317 13418692 -0.98652202 0.064776562 -0.15026085 0.059092704
2.4187391 -1.0477946 0.61654252 13418692 -0.98090589 0.15196723 -0.12136599 0.04086443
2.41998 -1.0294876 0.61698186 13878214 -0.97293907 0.18963754 -0.13201208 0.02795461
2.4212213 -1.0111805 0.61742121 13811653 -0.98668224 0.15363875 -0.053416103 0.037917413
2.4237034 -0.97456664 0.6182999 14799577 -0.99427605 0.039786279 -0.099157616 0.039058581
2.4249444 -0.95625967 0.61873925 13944785 -0.98146945 0.13588668 -0.13510235 0.041512985
2.4261856 -0.93795264 0.61917859 14405848 -0.9416191 0.32181633 -0.098932885 0.024641164
2.4672248 -0.82059276 0.61113483 14667737 -0.86366934 0.30085465 -0.40442783 0.039238442
2.4575648 -0.70429546 0.61022931 15062749 -0.96974558 0.23912895 -0.049101003 0.03776915
2.4760351 -0.69063509 0.61425364 14471126 -0.9790464 0.15720852 -0.12943609 0.029431712
2.4600644 -0.66742307 0.6111142 14997472 -0.9902249 0.030932767 -0.1360068 0.032982398
2.4613144 -0.64898688 0.61155665 14668505 -0.98086983 -0.14058039 -0.13465318 0.029913954
2.4625642 -0.63055068 0.61199909 15062496 -0.96415472 -0.23853405 -0.1162204 0.027459424
2.4675636 -0.55680591 0.61376888 14602198 -0.95334697 0.26378101 0.14679663 0.024611978
2.4688134 -0.53836972 0.61421132 14535894 -0.9960559 0.086354084 0.020389602 0.04714923
2.4700632 -0.51993346 0.61465383 14667991 -0.99311376 0.10342639 -0.055027381 0.041880414
2.4713132 -0.50149727 0.61509621 14404819 -0.98677331 0.1145243 -0.11472873 0.044712398
2.472563 -0.48306108 0.61553872 14338260 -0.97740817 0.11942774 -0.17438582 0.061689194
2.4738128 -0.46462488 0.6159811 14601945 -0.95898175 0.24923368 -0.13504316 0.074302576
2.4750626 -0.44618869 0.61642361 14141396 -0.98534524 0.15607494 0.068813957 0.081894509
2.4763126 -0.42775249 0.61686599 14667478 -0.9864735 0.029471301 0.16124974 0.059330743
2.4775624 -0.4093163 0.6173085 14536921 -0.99666685 -0.078659058 -0.021634623 0.066809624
2.480062 -0.37244391 0.61819339 14535892 -0.96473372 -0.06647706 -0.25469536 0.051578496
2.481312 -0.35400772 0.61863583 14469329 -0.94128609 -0.14128262 -0.30662641 0.081632085
2.4651752 -0.33325028 0.61543739 14141136 -0.96164101 -0.035764527 -0.27196974 0.078693315
2.4664164 -0.31494331 0.61587679 14075343 -0.9190526 0.17305864 -0.35410881 0.080123097
2.4850616 -0.29869914 0.61996317 14206929 -0.87235808 0.32353047 -0.36649621 0.072864681
2.524385 0.052559562 0.6135785 13284031 -0.99206847 0.018291717 0.12436117 0.084788442
2.5256436 0.071124949 0.61402404 13152445 -0.98391002 -0.17529629 -0.034530807 0.080976598
2.5093279 0.089036115 0.6108861 12824507 -0.99297768 -0.050405383 -0.10702686 0.091262631
2.5105777 0.10747234 0.61132854 12825276 -0.96681923 0.25452602 0.021844478 0.091727182
2.5294194 0.12682113 0.61536074 12759483 -0.91422212 0.40204415 0.050581526 0.037244618
2.530678 0.14538652 0.61580622 12824253 -0.95999563 0.27998903 -0.0038305225 0.045351971
2.5319366 0.1639519 0.61625183 12692407 -0.99030083 -0.073438846 -0.11794488 0.034841649
2.5331953 0.18251729 0.61669731 12889786 -0.97766888 -0.12378978 -0.16982238 0.027832445
2.5344539 0.20108268 0.61714292 12692920 -0.99150908 -0.022659916 -0.1280483 0.021270033
2.5357125 0.21964806 0.61758846 12560821 -0.98916215 0.071587831 -0.12819293 0.024499498
2.5369711 0.23821342 0.61803401 12428723 -0.98365647 0.16824318 -0.064141944 0.021660527
2.5382297 0.25677881 0.61847955 12559539 -0.99097306 0.13020381 -0.031928223 0.021848243
2.5394883 0.27534419 0.61892509 12494769 -0.99327296 0.1157731 0.0023426416 0.017830413
2.5407469 0.29390955 0.61937064 12429489 -0.99587327 0.072175935 0.055018861 0.0083655883
2.5420055 0.31247497 0.61981618 12363443 -0.99983948 0.017554145 0.0035936316 0.018481774
2.5651834 0.68436182 0.61023009 10719131 -0.99755162 0.049254935 0.049645882 0.0080316765
2.566442 0.70292723 0.61067557 10718618 -0.99796259 0.061367143 -0.017456546 0.014949279
2.5677006 0.72149259 0.61112118 10586770 -0.99848074 0.0089243669 -0.054374903 0.02069273
2.5689592 0.740058 0.61156672 10586519 -0.99778694 0.03984908 -0.05322881 0.020945726
2.5702178 0.75862336 0.61201227 10323097 -0.99656624 -0.081078656 0.016794631 0.036505491
2.0718272 0.77804506 0.61541146 9071726 -0.30141762 -0.95341992 -0.011744727 0.040900651
2.5714765 0.77718878 0.61245781 10193554 -0.93127275 -0.34572965 -0.11490074 0.070310406
2.0728302 0.79284114 0.61576653 8541769 -0.32916284 -0.94420683 0.011197654 0.041110627
2.0305972 0.80372268 0.61947542 7358257 -0.23652865 -0.96763045 0.088008516 0.038315728
2.0621245 0.8030498 0.61320293 8346445 -0.40111753 -0.91526699 0.037295535 0.03917655
1.9592563 0.81494552 0.61496723 8081472 -0.070405379 -0.99251366 0.099798903 0.0051056221
2.0209153 0.8138721 0.61708993 8279110 -0.11024205 -0.99068028 0.079995923 0.012092786
2.0514071 0.81309128 0.61063528 7490615 -0.39885247 -0.91626793 0.037011195 0.03944255
2.5573416 0.82705897 0.61021566 10060426 -0.98617607 0.14469491 0.080747567 0.020792153
2.5585914 0.84549528 0.61065811 10125451 -0.98983389 0.12961017 0.058567096 0.020882009
2.5598412 0.8639316 0.61110055 9731463 -0.99539024 0.074889556 0.059914965 0.011449959
2.5610909 0.88236779 0.611543 9468551 -0.96862459 0.24605429 0.03498232 0.025804963
2.5802867 0.90714657 0.61557662 9140613 -0.96820992 0.20725086 0.14005959 0.041428309
2.5815454 0.92571187 0.61602223 8943489 -0.9752422 0.096152574 0.19914144 0.053853281
2.5648406 0.93767625 0.61287034 9269632 -0.98464823 0.089763403 0.14970092 0.055511616
2.5660903 0.95611256 0.61331284 8744817 -0.98929578 -0.049053852 0.13743204 0.046420626
2.4077821 -1.4982021 0.62794077 11244952 -0.90497971 -0.40724194 0.1231495 0.01596088
2.3921607 -1.4694268 0.62467718 11114389 -0.94940484 -0.29975775 0.093678996 0.026869906
2.3765211 -1.4409101 0.62140739 10917527 -0.99611253 -0.0039796936 0.088000067 0.029547736
2.3946428 -1.4328128 0.62555587 11049113 -0.99483943 0.033219688 0.095869832 0.033439189
2.3958838 -1.4145057 0.62599528 11312284 -0.99730277 -0.048216589 0.055338416 0.046411902
2.3802183 -1.3863766 0.62271619 11508898 -0.99237347 -0.10319468 -0.067422025 0.057285585
2.3826828 -1.3500209 0.62358868 11445410 -0.94218975 0.23376001 -0.24007246 0.073130205
2.4008482 -1.3412777 0.62775266 3548192 -0.96375328 0.15017612 -0.22051476 0.068140335
2.4020894 -1.3229707 0.62819195 12494241 -0.96931648 0.117539 -0.21589381 0.054948788
2.38638 -1.2954874 0.62489736 12627125 -0.9720754 0.18948284 -0.13844034 0.051967312
2.4045715 -1.2863568 0.62907064 12364207 -0.99699736 0.063313939 -0.044583 0.051251721
2.4058127 -1.2680497 0.62951005 12758450 -0.99768537 0.031751305 0.060130894 0.053912282
2.3900769 -1.2409542 0.62620616 12824758 -0.99275625 0.089392595 -0.080275439 0.043199789
2.4395478 -0.99984974 0.62151849 13944266 -0.9928413 0.080199644 -0.088510752 0.039294474
2.4445472 -0.9261049 0.62328827 14470099 -0.95601517 0.27389708 -0.10495476 0.025002191
2.445797 -0.90766871 0.62373072 14207440 -0.9922027 0.078003846 -0.097207032 0.039773904
2.4470468 -0.88923252 0.62417316 14404304 -0.98666811 -0.13684425 -0.088089734 0.01782576
2.43115 -0.86472458 0.62093604 14535892 -0.98611575 -0.11979824 -0.11499632 0.022688363
2.4323912 -0.84641761 0.62137532 14734301 -0.97295082 0.099883214 -0.20830277 0.054853402
2.4336321 -0.82811058 0.62181473 14404568 -0.92352486 0.27502728 -0.26732358 0.048091728
2.4520462 -0.81548774 0.62594295 14668507 -0.9024812 0.27963051 -0.32761946 0.047418956
2.4532959 -0.79705155 0.62638545 14471637 -0.94171035 0.12776642 -0.3112191 0.045020007
2.454546 -0.77861536 0.62682784 14733782 -0.97799927 0.15070632 -0.14423981 0.0407595
2.4557958 -0.76017916 0.62727034 14734300 -0.97698975 0.20682429 -0.052103385 0.032507509
2.4570456 -0.74174297 0.62771273 14537179 -0.99733925 0.072655216 -0.0059682718 0.035035446
2.4582953 -0.72330678 0.62815523 14734301 -0.99510431 0.073837243 -0.065693296 0.039354026
2.4595454 -0.70487058 0.62859768 14799324 -0.97555727 0.16299297 -0.1473818 0.038365662
2.4607952 -0.68643439 0.62904012 14536919 -0.96261913 0.16201924 -0.21705806 0.03592708
2.462045 -0.66799819 0.62948257 14339543 -0.9902817 0.070361935 -0.11996438 0.030850302
2.463295 -0.649562 0.62992501 14471128 -0.99501032 -0.087591484 -0.047772996 0.025039634
2.4497664 -0.59011948 0.62752622 14405333 -0.98044062 0.10065016 0.16913235 0.061113469
2.455972 -0.49858445 0.62972295 14470358 -0.9853459 0.1180149 -0.1231503 0.065881975
2.4961729 -0.39358884 0.62138247 14207186 -0.95644134 -0.065552995 -0.28446949 0.042218253
2.5037246 -0.28219652 0.62405574 14141396 -0.90853697 0.24115185 -0.34118372 0.079922259
2.5049832 -0.26363117 0.62450129 14009810 -0.94033885 0.18632129 -0.28468803 0.076319478
2.5062418 -0.24506573 0.62494683 14009295 -0.93851119 0.024806881 -0.34435645 0.060796008
2.5075004 -0.22650038 0.62539238 13943502 -0.88414329 -0.015190965 -0.46696889 0.037711997
2.4913108 -0.20651811 0.6221754 13745609 -0.88467312 0.090488546 -0.45734599 0.044269662
2.4925606 -0.18808192 0.62261784 13746889 -0.88036752 -0.013769953 -0.4740923 0.064407811
2.5112762 -0.1708042 0.62672901 13877964 -0.91916782 -0.23366374 -0.31706744 0.059660722
2.4950604 -0.15120952 0.62350273 13745606 -0.95762134 -0.20365882 -0.20367754 0.054595809
2.4963102 -0.13277332 0.62394524 13877446 -0.97230673 -0.12724315 -0.19603272 0.075348608
2.4800684 -0.11356622 0.6207096 13877964 -0.94192964 -0.11217479 -0.31652081 0.060671978
2.4813094 -0.095259219 0.62114894 13483206 -0.94168448 -0.16217354 -0.29483917 0.04703619
2.4825506 -0.076952212 0.62158829 13417413 -0.97173858 0.10834581 -0.20972678 0.063055158
2.4837916 -0.058645196 0.62202764 13416130 -0.93037653 0.34871003 -0.11314094 0.053404033
2.5025594 -0.040592343 0.6261574 13612996 -0.95809603 0.28211179 0.04964811 0.027482737
2.5038092 -0.022156149 0.62659991 13481923 -0.99286854 0.083796926 0.084795207 0.040708032
2.5050592 -0.0037199445 0.62704235 13547717 -0.9983784 -0.0344209 0.045341372 0.027717115
2.4887559 0.014582813 0.62378502 13350851 -0.99507326 0.099091806 0.0031759441 0.041359939
2.5075588 0.033152442 0.62792724 13416384 -0.91747576 0.38947156 -0.080932774 0.04401619
2.4937205 0.087810874 0.6255424 13087419 -0.97001874 -0.21225673 -0.11836714 0.06606365
2.5125582 0.10689725 0.62969702 13152697 -0.95029593 0.29622522 -0.095855474 0.099731229
2.5432642 0.33104038 0.62026173 12231344 -0.99580413 0.072490834 0.055850063 0.0079813534
2.5445228 0.34960574 0.62070727 12033964 -0.99646717 0.015267282 0.08258412 0.0081320219
2.5457814 0.36817116 0.62115288 12033195 -0.99932051 -0.036827251 0.0014989004 0.022135364
2.54704 0.38673657 0.62159836 12296361 -0.99758607 0.015822954 -0.067614026 0.027142685
2.5482986 0.40530193 0.62204397 12033700 -0.99235106 0.12219705 -0.017531382 0.023032339
2.5495572 0.42386734 0.62248945 11837352 -0.99486405 0.10120834 0.0015433133 0.026648408
2.5508158 0.4424327 0.62293506 11967653 -0.9997834 0.014026441 -0.015376158 0.031781554
2.5520744 0.46099812 0.62338054 11902114 -0.99287891 0.070831798 -0.095782809 0.041814629
2.553333 0.47956347 0.62382615 11836837 -0.97150743 0.058855902 -0.22958539 0.042281367
2.5545917 0.49812883 0.62427169 11573665 -0.97325975 0.060850754 -0.22150116 0.039433852
2.5558503 0.51669425 0.62471724 11377312 -0.97855687 0.042463951 -0.2015522 0.039871614
2.5571089 0.5352596 0.62516278 11244708 -0.99573094 -0.00019643921 -0.092303231 0.036659874
2.5583675 0.55382502 0.62560833 11441828 -0.99142015 0.025254341 -0.1282509 0.038120724
2.5418241 0.5683772 0.62238979 11112348 -0.9944818 0.02297402 -0.10236308 0.035130084
2.5608847 0.59095579 0.62649941 11309725 -0.98466617 0.16345549 -0.060950182 0.035999119
2.5621433 0.60952121 0.62694496 11046553 -0.98772019 0.15618135 0.00402724 0.038305499
2.5455737 0.6236859 0.62371707 11309466 -0.99972463 0.021271311 -0.0099133849 0.041159756
2.5646605 0.64665198 0.62783605 10915483 -0.99629998 0.067171961 -0.053612225 0.036251914
2.5659192 0.66521734 0.62828159 10914967 -0.99088609 0.11152095 -0.075549997 0.029819762
2.5671778 0.6837827 0.6287272 10783897 -0.99380493 0.057550751 -0.095077798 0.030106675
2.5684364 0.70234811 0.62917268 10587032 -0.99509811 -0.014066203 -0.097887337 0.026822096
2.569695 0.72091347 0.62961829 10586269 -0.99537975 -0.0065606656 -0.095792331 0.035308596
2.5543227 0.75273913 0.62681425 10324111 -0.98098081 -0.049143083 -0.1877808 0.057579845
2.5568223 0.78961152 0.62769914 10191763 -0.97319245 -0.20353283 -0.10710235 0.10085674
2.063705 0.80259085 0.62786132 7952205 -0.36414495 -0.93056571 0.038026448 0.03901013
2.5401564 0.80235511 0.62443733 9994643 -0.99654555 -0.078531779 -0.027013663 0.10377727
2.0010171 0.81858993 0.62587416 7818551 -0.10304002 -0.98947501 0.10159713 0.0095000509
2.5593221 0.82648391 0.62858403 10125453 -0.98384905 0.15111837 0.095939472 0.038300812
2.5605719 0.84492022 0.62902647 10322317 -0.98461396 0.17198288 0.03094089 0.032521319
2.5618217 0.86335653 0.62946892 9731210 -0.99543053 0.088003807 0.037060525 0.022195779
2.5630715 0.88179272 0.62991136 9338243 -0.9551847 0.29566777 0.014240585 0.025795044
2.3784738 -1.4414771 0.63951838 10654606 -0.99382061 -0.026156932 0.10787271 0.043083031
2.4082949 -1.2314357 0.63038874 12758452 -0.92376333 0.37975311 -0.049486168 0.058537591
2.4095359 -1.2131288 0.63082802 12627377 -0.90200454 0.43161494 -0.0098182857 0.043929618
2.4277799 -1.2032229 0.6350199 12956342 -0.9679364 0.24828956 -0.038098529 0.049953841
2.4290297 -1.1847867 0.6354624 13285823 -0.98561788 0.11655068 -0.12236559 0.041370686
2.4132593 -1.1582078 0.63214612 13285823 -0.98153979 0.095160164 -0.16590452 0.030857258
2.4315293 -1.1479144 0.63634729 13417409 -0.97633809 0.13186124 -0.17139609 0.034142904
2.4327793 -1.1294782 0.63678968 13418690 -0.97080404 0.1724878 -0.16669609 0.027436338
2.4340291 -1.111042 0.63723218 13549510 -0.97502643 -0.13725962 -0.17459446 0.047226001
2.4011679 -1.0773537 0.63013238 13877192 -0.9833985 -0.098852776 -0.15216941 0.056757532
2.4194646 -1.0666728 0.63434285 13681094 -0.9962492 0.041699778 -0.07582064 0.064128846
2.4207058 -1.0483657 0.6347822 13615303 -0.97768414 0.20493574 0.046206821 0.026446994
2.4219468 -1.0300587 0.63522154 13944264 -0.98899633 0.14367794 0.035256352 0.019462867
2.423188 -1.0117517 0.63566089 13746887 -0.99209654 0.11943182 -0.038477235 0.026213123
2.4244289 -0.99344486 0.63610023 14338772 -0.99605262 0.069200903 -0.055592284 0.024433564
2.4256701 -0.97513777 0.63653958 14470612 -0.99977434 0.016389351 0.013519913 0.01923584
2.4269111 -0.95683074 0.63697892 14339540 -0.98628557 0.16273041 -0.027560614 0.033096131
2.4281523 -0.93852371 0.63741827 14338772 -0.95004028 0.30968532 -0.038967509 0.025203642
2.4331167 -0.86529565 0.63917565 14470358 -0.99063271 -0.12894885 -0.04493371 0.021176541
2.4343579 -0.84698868 0.63961506 14142676 -0.99918407 0.023520868 -0.032832071 0.034751695
2.4645448 -0.63112581 0.63036746 14865887 -0.98021436 -0.19793893 -1.0013581e-05 0.025395295
2.4657946 -0.61268955 0.6308099 14273747 -0.98763508 -0.13518612 0.079383284 0.040450864
2.4682944 -0.57581723 0.63169479 14667737 -0.93100911 0.29840225 0.21018608 0.031116145
2.4695442 -0.55738103 0.63213724 14667225 -0.96300304 0.21041355 0.16837855 0.03767338
2.470794 -0.53894484 0.63257968 14601685 -0.99737525 -0.066546112 0.02853404 0.02380407
2.4720438 -0.52050859 0.63302219 14996956 -0.99837017 0.049373787 -0.028621785 0.044084813
2.4745436 -0.4836362 0.63390708 14469332 -0.98482519 0.13580409 -0.10805827 0.082623936
2.4931328 -0.46842951 0.63809735 14536921 -0.90161085 0.43116015 -0.034623057 0.069308348
2.4943914 -0.44986415 0.63854289 14733018 -0.9858216 0.1667767 -0.01847356 0.089410655
2.4956501 -0.43129879 0.63898849 14600915 -0.99540323 0.012620146 -0.094937511 0.093159869
2.479543 -0.40989137 0.63567686 14404565 -0.95902872 -0.1791577 -0.21946856 0.06150141
2.4807928 -0.39145517 0.63611925 14536405 -0.95967817 -0.047455806 -0.2770665 0.049594633
2.4820426 -0.37301898 0.63656175 14404819 -0.95525622 0.087401658 -0.28257138 0.040309109
2.4832926 -0.35458279 0.6370042 14011090 -0.97698653 -0.083601564 -0.19623496 0.059275161
2.4845424 -0.33614653 0.63744664 14076630 -0.97250336 -0.10112362 -0.20978856 0.064941272
2.4683828 -0.31551439 0.63411641 14140881 -0.97964036 -0.021879831 -0.19956481 0.074125774
2.469624 -0.29720736 0.63455582 13944014 -0.91428387 0.18966651 -0.35792693 0.079766907
2.488292 -0.28083795 0.63877398 14010061 -0.85195512 0.23784681 -0.46647766 0.031337041
2.4895418 -0.26240176 0.63921642 14075854 -0.85420591 0.2189662 -0.47157836 0.025613923
2.4907916 -0.24396558 0.63965887 13746635 -0.87164271 -0.030272659 -0.48920602 0.02960114
2.4758294 -0.20567232 0.63675249 13877194 -0.93660259 0.22372717 -0.26966983 0.060645286
2.4795527 -0.15075129 0.63807058 13812169 -0.98037809 -0.16508448 -0.10773065 0.058497254
2.4807937 -0.13244429 0.63850993 13680842 -0.99652934 -0.079947971 0.023186693 0.055046663
2.4820349 -0.11413728 0.63894928 13153990 -0.97963524 -0.1796618 -0.089646772 0.059210721
2.4832759 -0.095830277 0.63938862 13350851 -0.9768436 -0.18126422 -0.11366575 0.066638254
2.4669936 -0.077006713 0.63601494 13285827 -0.9774974 0.17225952 -0.12176019 0.07465677
2.5263793 0.051980447 0.63207561 12891069 -0.99858934 -0.05308013 -0.0013673903 0.093778186
2.527638 0.070545837 0.63252115 12956090 -0.99057794 -0.1362429 0.013901526 0.083476715
2.5314138 0.12624201 0.63385785 13021626 -0.85984582 0.44801795 -0.24483687 0.050659705
2.5326724 0.1448074 0.63430333 12824507 -0.93843639 0.19317864 -0.28639004 0.061985984
2.533931 0.16337278 0.63474894 12889527 -0.98091173 -0.11547212 -0.15645592 0.024073619
2.5351896 0.18193817 0.63519442 12955066 -0.98309231 -0.10349191 -0.15105931 0.0210132
2.5188076 0.19907826 0.63190925 12627127 -0.9790597 -0.03667789 -0.20024216 0.018670276
2.5200574 0.2175144 0.63235176 12495542 -0.97600108 0.091124967 -0.19778307 0.023283295
2.5213072 0.23595062 0.63279414 12495282 -0.96562958 0.19871089 -0.16755165 0.024343582
2.5402241 0.25619969 0.63697666 12363694 -0.96742505 0.21687305 -0.13059436 0.022926621
2.5414827 0.27476507 0.6374222 12494515 -0.97953939 0.17656127 -0.096585236 0.023974687
2.5427413 0.29333043 0.63786775 12428976 -0.99529672 0.037663747 -0.089252457 0.02370856
2.5439999 0.31189585 0.63831329 12362930 -0.99273574 0.073996536 -0.094870128 0.021314977
2.5452585 0.33046126 0.63875884 12297390 -0.99628156 0.08421956 0.018171109 0.017927585
2.5465171 0.34902662 0.63920438 11904172 -0.99838078 -0.0030864417 0.056801043 0.02823187
2.5477757 0.36759204 0.63964999 11705000 -0.99098635 -0.13394623 0.002110295 0.026019501
2.531306 0.38344014 0.63633376 12230316 -0.99538416 -0.052860919 -0.080100872 0.03599197
2.5325561 0.40187633 0.63677621 12033446 -0.98575538 0.11484662 -0.12286814 0.032816984
2.5363054 0.45718491 0.63810354 11771557 -0.98721218 -0.035718355 -0.15535861 0.032840591
2.5375555 0.4756211 0.63854599 11771557 -0.9644388 -0.010329437 -0.26410443 0.03906944
2.540055 0.51249361 0.63943088 11442853 -0.97768015 0.063274518 -0.20034435 0.050837241
2.5709536 0.73947889 0.63006383 10585240 -0.99036175 0.10210446 -0.093585826 0.034196991
2.5734708 0.77660966 0.63095492 9667210 -0.94387674 -0.31011179 -0.11369901 0.076906689
2.0744197 0.79237956 0.63050818 8214097 -0.32407203 -0.94564497 0.027073707 0.039918628
2.1085365 0.79083622 0.63914716 8679278 -0.30242768 -0.95309895 -0.011830838 0.040685985
2.0438843 0.80793709 0.63697875 7423292 -0.27384752 -0.96165484 0.015083291 0.038298789
2.0224614 0.81342316 0.63143027 8016694 -0.16903585 -0.98518354 0.028989013 0.021332094
2.5643215 0.9002288 0.63035381 9206141 -0.94486135 0.30598173 0.11667141 0.027105661
2.5835397 0.92513275 0.63451934 9271684 -0.97492844 0.15774706 0.1569411 0.05393276
2.5847983 0.94369829 0.63496482 9335171 -0.99104995 0.0045286845 0.1334153 0.055371877
2.5860569 0.96226358 0.63541043 9073013 -0.99105144 0.0062293801 0.13333544 0.055769935
2.4097626 -1.4987772 0.64630914 10653838 -0.91688108 -0.33828661 0.21187557 0.015199214
2.4110126 -1.480341 0.64675164 10786194 -0.93228072 -0.31446895 0.17877911 0.022213211
2.3966095 -1.4333838 0.64379561 10916497 -0.98824739 -0.065543622 0.13809869 0.046674941
2.3978505 -1.4150767 0.6442349 11049362 -0.99430412 -0.038617194 0.099338174 0.051273763
2.3990917 -1.3967698 0.6446743 11180950 -0.98931992 -0.10912994 0.09662699 0.041722447
2.3834033 -1.3687656 0.64126337 11574681 -0.97738636 -0.092956938 -0.18993403 0.087047212
2.3846354 -1.3505878 0.64169955 11837859 -0.93640351 0.14503214 -0.31955311 0.0740759
2.4028149 -1.3418487 0.64599228 9736853 -0.93015075 0.16871709 -0.32611978 0.069371529
2.3871002 -1.3142323 0.64257205 13085340 -0.91647434 0.17689385 -0.35886413 0.072866872
2.3883326 -1.2960544 0.64300835 12232360 -0.90160233 0.33418036 -0.27465755 0.06344337
2.4065382 -1.2869278 0.64731038 12889525 -0.96462321 0.15934741 -0.21002509 0.071261451
2.3907971 -1.2596989 0.64388084 12496818 -0.99963415 0.019511068 0.018733719 0.061344892
2.3920295 -1.2415211 0.64431703 12496559 -0.99544811 0.091113105 -0.027955048 0.05950021
2.4102616 -1.2320067 0.64862835 12693168 -0.95807302 0.26125526 -0.11765123 0.060982388
2.4115026 -1.2136998 0.64906776 12497072 -0.89489639 0.40466437 -0.18816817 0.033846393
2.4127438 -1.1953927 0.64950711 12760243 -0.96348917 0.18147966 -0.1968599 0.041488841
2.4139848 -1.1770858 0.64994645 13023164 -0.99689275 0.055685453 -0.055713497 0.033493374
2.4031205 -1.0779207 0.64824331 13548995 -0.99724907 -0.033122733 -0.066311158 0.059891768
2.4465277 -0.92667997 0.64165664 14142415 -0.94995874 0.28126726 -0.13589439 0.024888901
2.4477775 -0.90824378 0.64209908 14339026 -0.97922266 0.1029954 -0.17468536 0.034056384
2.4490273 -0.88980758 0.64254153 14404306 -0.98490417 -0.088994585 -0.14847139 0.021378713
2.4355989 -0.82868165 0.64005435 14536405 -0.98621505 0.16320348 -0.027286964 0.02491788
2.4368401 -0.81037468 0.64049375 14405335 -0.97941619 0.14881629 -0.13637336 0.025542729
2.438081 -0.79206771 0.64093304 14339542 -0.95881248 0.25017112 -0.13451086 0.027797071
