# .PCD v0.7 - Point Cloud Data file format
VERSION 0.7
FIELDS x y z rgb normal_x normal_y normal_z curvature
SIZE 4 4 4 4 4 4 4 4
TYPE F F F U F F F F
COUNT 1 1 1 1 1 1 1 1
WIDTH 519
HEIGHT 1
VIEWPOINT 0 0 0 1 0 0 0
POINTS 519
DATA ascii
0.58491683 -0.0014263112 0.010043189 11308948 -0.11483526 0.0027014222 0.9933809 0.002163114
0.61075902 -0.0021863268 0.011402711 11177367 -0.12810574 -0.00084672688 0.99176019 0.0022354871
0.62431806 -0.0063216714 0.013356812 11112341 -0.1135131 0.0085003618 0.99350017 0.0023728737
0.63284284 -0.0034107477 0.014693514 11243673 -0.11396977 0.018782152 0.9933067 0.0017611681
0.64720017 -0.0051449104 0.015562013 11176853 -0.13515231 -0.0013226588 0.99082398 0.0017168943
0.65964073 -0.0070917942 0.017202035 12428745 -0.11311627 -0.00032396804 0.99358171 0.0021379131
0.67396665 -0.0050755367 0.017258525 12297415 -0.099533387 0.00087644096 0.99503386 0.0024136808
0.68927681 -0.008363463 0.019824058 11902907 -0.11132255 0.023127578 0.99351519 0.0021926288
0.5996449 0.0018805878 0.010155991 11177874 -0.10484086 -0.00075772032 0.99448878 0.0022798595
0.60038793 0.0090038572 0.010164484 11374228 -0.12037445 -0.0070129656 0.9927038 0.0023582939
0.61040461 0.0097830631 0.010261223 11373976 -0.11853647 0.0026690196 0.99294609 0.0022468208
0.62557238 0.0011648464 0.011911348 11307675 -0.11002178 0.02177402 0.99369067 0.0029653066
0.63322145 0.0048828619 0.013993166 11374233 -0.12599136 0.0074849762 0.99200308 0.0032053217
0.64777589 0.0050104558 0.015718535 10848403 -0.14409418 -0.0028988086 0.98955971 0.0020088495
0.65708584 0.0055563468 0.01834248 11903172 -0.11158029 -0.0099873105 0.99370527 0.0021340325
0.67739332 0.004338718 0.017941758 11968710 -0.095822819 -0.0026209264 0.99539495 0.0028775455
0.69236213 0.0025856767 0.01930432 11178664 -0.11304032 0.0072718882 0.99356383 0.0024468983
0.6137464 0.017226953 0.011114672 11307927 -0.09795472 -0.0013178699 0.99519002 0.0023764218
0.62783289 0.013594903 0.011622436 11308438 -0.12094645 0.0075459355 0.99263036 0.0029494602
0.63785005 0.016824771 0.013828859 11309466 -0.1444685 -0.0029099975 0.98950511 0.0028277219
0.64883703 0.015183829 0.015730679 11045525 -0.15993372 0.01504142 0.98701316 0.0016200048
0.65962869 0.016007045 0.017932937 12165575 -0.12852514 -0.030668557 0.99123198 0.0019433658
0.67234975 0.011785898 0.019593865 11837373 -0.092937015 -0.020335441 0.99546432 0.0025546649
0.69503635 0.018909965 0.019057408 10323346 -0.10971581 0.0030808917 0.99395823 0.0036635499
0.58684731 0.026279643 0.010402426 11307674 -0.13497649 -0.016344888 0.99071401 0.0026322047
0.60175306 0.024394929 0.010262534 11242645 -0.12052545 -0.013893129 0.99261302 0.0024963962
0.61377972 0.026772724 0.011437252 11242898 -0.098413832 -0.039079849 0.99437797 0.0025736033
0.62080646 0.020165944 0.014060199 11308185 -0.10404068 -0.0051771542 0.99455965 0.0025849792
0.63173664 0.027801747 0.01261922 11242904 -0.11309608 -0.016106592 0.9934535 0.0025098538
0.64892066 0.025256764 0.016031504 11046036 -0.17791833 0.012712754 0.98396313 0.0020991906
0.6646232 0.026748184 0.016820401 12495054 -0.12812404 -0.017691892 0.99160033 0.0029417013
0.61568975 0.038933132 0.011244312 11045775 -0.11205891 -0.020275457 0.99349475 0.0034082106
0.62356532 0.037373878 0.013777003 11176850 -0.090824902 -0.028717862 0.99545276 0.0025628044
0.63700366 0.036479481 0.014741138 11243924 -0.12367211 -0.021203294 0.9920966 0.0031215814
0.65046996 0.035474692 0.015899301 11046034 -0.15112136 -0.01425256 0.9884125 0.0025146403
0.66644543 0.034556001 0.019261718 11968958 -0.11906029 -0.0055297003 0.99287164 0.002801958
0.67426974 0.030192699 0.019615829 11574453 -0.091447189 -0.021316582 0.99558181 0.0026031514
0.59848666 0.046052035 0.012120768 10979733 -0.098223329 0.019322572 0.99497682 0.004955438
0.62458575 0.047156982 0.01378867 11111317 -0.078300491 -0.0084626107 0.99689394 0.0026124038
0.64121377 0.044445481 0.013713688 11176855 -0.14571446 -0.019051932 0.98914325 0.0021761213
0.65349364 0.045920905 0.015334144 10979984 -0.15480992 -0.03017519 0.98748338 0.0026659109
0.59799933 0.050592437 0.012444854 11176848 -0.10514745 -0.00023123063 0.99445665 0.0051324754
0.6138519 0.050532985 0.012243643 10913938 -0.14075589 0.014679731 0.98993552 0.0046641002
0.62560374 0.056917362 0.013800338 11045271 -0.12982318 -0.0011325702 0.9915365 0.0016997901
0.6393441 0.058917731 0.0147679 11176852 -0.12791783 -0.00070431462 0.99178457 0.002832626
0.65259141 0.05581386 0.015923575 10913938 -0.15198791 -0.0057783183 0.98836547 0.0028597061
0.66711211 0.052565735 0.019629285 11442353 -0.14386889 -0.029311169 0.98916262 0.0027898573
0.6994164 0.051587429 0.018829986 9665150 -0.12885356 -0.042662956 0.99074554 0.0035849041
0.60224062 0.060545787 0.011394486 11176337 -0.10514206 0.013358334 0.99436748 0.005589433
0.6163249 0.060401186 0.011788592 10848403 -0.13119066 0.019573506 0.99116391 0.0045935456
0.62662464 0.066704258 0.013812006 11045265 -0.10783184 0.0053172372 0.99415493 0.00081144372
0.64038432 0.068890288 0.014779821 11045778 -0.14726172 -0.023052726 0.9888289 0.0025345632
0.65069926 0.06548512 0.016801521 10716044 -0.15761663 -0.0057484899 0.98748374 0.0030773915
0.66770202 0.062870927 0.01977852 11244464 -0.14149183 0.023755835 0.98965436 0.0035249805
0.59265667 0.072776787 0.010131761 10585739 -0.12080657 0.0050963815 0.99266297 0.0053899479
0.60510635 0.074968681 0.010960251 10651789 -0.11472522 -0.012083068 0.99332374 0.0036149649
0.61807734 0.074895516 0.0117281 10716044 -0.12727474 0.0012016221 0.99186677 0.0016853971
0.62912041 0.07676921 0.013368413 11045006 -0.14676684 0.0059581809 0.98915321 0.0019829238
0.64888066 0.075982891 0.015938804 10585735 -0.14013891 -0.0088743549 0.9900921 0.0053546568
0.66434199 0.075121745 0.018425509 10849192 -0.12949352 0.050886404 0.99027371 0.0030850433
0.59288418 0.084156081 0.010471493 10454414 -0.10378382 -0.031132063 0.99411249 0.0024776864
0.61737108 0.08888559 0.012444988 10453382 -0.10542619 -0.0068113515 0.99440384 0.00061123742
0.63136452 0.084420621 0.012921929 11043982 -0.12606502 0.00092486857 0.99202156 0.00067373266
0.64133424 0.084939733 0.015021175 10651276 -0.16157503 -0.0078597395 0.98682916 0.0033456245
0.65034121 0.085230306 0.017547116 10322565 -0.1383176 0.0010580663 0.99038744 0.0070391637
0.66465414 0.082757533 0.018575281 9402232 -0.10198465 0.013339642 0.99469656 0.0071017696
0.68074489 0.082970783 0.019404933 8413792 -0.12762398 0.052512579 0.99043155 0.0033561564
0.59483355 0.093646415 0.010156646 10651018 -0.10711865 -0.010315914 0.99419272 0.0013969742
0.60757107 0.091688462 0.010741189 10454414 -0.098208159 -0.0066796821 0.99514347 0.0011214571
0.61812311 0.096095972 0.012453631 10584975 -0.10781829 -0.004681902 0.99415958 0.00098079466
0.67570341 0.092460454 0.017502278 9598326 -0.090830773 0.0030077416 0.99586183 0.0067640017
0.59542453 0.10621139 0.010416277 10454668 -0.09767919 -0.030402271 0.99475348 0.0018605369
0.60732573 0.10315569 0.011232898 10912914 -0.098982587 -0.0086027794 0.99505198 0.0021896199
0.62897867 0.10775572 0.014468476 10520204 -0.12320884 -0.00079023658 0.9923805 0.0012308396
0.64404976 0.10866012 0.014975414 10322060 -0.14580812 0.010409242 0.98925817 0.0039357799
0.65120178 0.10441653 0.016165257 10059397 -0.1114423 -0.00058508664 0.99377078 0.0058665262
0.67297691 0.10219304 0.016769782 9795708 -0.095169395 -0.0016327128 0.99545979 0.0071292347
0.68316317 0.10150528 0.019290134 9400435 -0.08673726 -0.0024150666 0.99622828 0.0066484311
0.59404939 0.11372349 0.011159062 10651534 -0.083831891 -0.024463924 0.99617958 0.002372317
0.60954559 0.11061814 0.010763779 10387853 -0.087920316 -0.01174363 0.99605829 0.0018344735
0.61946726 0.11513391 0.012683824 10256262 -0.10810713 -0.011488204 0.99407291 0.0022634403
0.63098717 0.11776969 0.014176682 10584462 -0.12648422 -0.041284416 0.99110919 0.002882441
0.64036828 0.11501811 0.016316205 10256008 -0.13989064 0.0054878858 0.99015176 0.0050608474
0.6559785 0.11609811 0.01686193 10123902 -0.10343597 0.0057138414 0.99461973 0.0069959257
0.66665465 0.11586478 0.019036785 9599610 -0.09084966 -0.0099083362 0.99581534 0.0077234646
0.68476093 0.11217392 0.019165933 9007472 -0.11378292 -0.024159502 0.99321187 0.0046156486
0.59463787 0.12396368 0.011334352 10453642 -0.084479548 -0.025941944 0.99608743 0.0018478765
0.6153363 0.12928665 0.012030527 10256776 -0.11392736 -0.039882571 0.99268824 0.0036374808
0.63134211 0.12733407 0.014390573 10387595 -0.12406692 -0.02995328 0.99182171 0.0034352683
0.65098381 0.12407346 0.015123382 10124418 -0.11833243 0.033060361 0.99242353 0.0058742049
0.66028231 0.12954713 0.016011581 9992315 -0.12592433 0.025643393 0.9917084 0.0040628011
0.67193532 0.12470664 0.017781317 9795709 -0.095205449 0.018061938 0.9952938 0.0073893773
0.68486416 0.12246317 0.019452065 9335924 -0.13749212 -0.02195544 0.99025953 0.0030184323
0.60236752 0.13687497 0.012051009 10124937 -0.11034884 -0.025115633 0.99357557 0.0030233022
0.62571532 0.1365391 0.01395797 10124679 -0.12580152 -0.032277949 0.99153018 0.0040005841
0.64408916 0.13526353 0.015846595 9993600 -0.082057379 -0.033987138 0.99604791 0.0028834417
0.65735888 0.13860267 0.017177567 9401718 -0.11238652 -0.016544148 0.99352682 0.0040768175
0.66342616 0.13390678 0.017889217 9598587 -0.12256829 0.020957435 0.99223882 0.0044253012
0.62586975 0.14469154 0.015028437 9928069 -0.12517586 -0.015761707 0.9920094 0.0047468897
0.64571548 0.14777029 0.015762761 9599617 -0.08538264 -0.034898996 0.99573684 0.0043146717
0.65815049 0.14619195 0.017186627 9533306 -0.099208757 -0.042491853 0.99415898 0.0033919972
0.6676054 0.14355107 0.019632503 9466747 -0.12249731 -0.023035306 0.99220151 0.0037470895
0.59838176 0.15525812 0.011208639 10320259 -0.09450943 -0.021594008 0.99528974 0.0014671033
0.60431582 0.15096785 0.012318417 10124163 -0.094562262 -0.0094442666 0.99547422 0.0028234562
0.62463784 0.15855327 0.012528166 9926019 -0.11770615 0.00065165386 0.99304831 0.0046064737
0.63181502 0.15343228 0.015130453 9729924 -0.13175814 -0.016395885 0.99114633 0.0042754798
0.64176118 0.15614112 0.017254114 9598077 -0.095997408 -0.003451379 0.99537563 0.0051861973
0.65547079 0.15758532 0.018355459 9401726 -0.075837404 -0.035016984 0.99650514 0.0020897689
0.66293418 0.15497106 0.01604192 9729405 -0.082850322 -0.032149382 0.99604326 0.0030732634
0.67317343 0.15514748 0.018380329 9401463 -0.11573192 -0.02751833 0.99289924 0.0037869243
0.57488096 0.16316821 0.010137632 9729920 -0.093515575 -0.027310446 0.99524319 0.0019947535
0.58621162 0.1668396 0.011011496 9795969 -0.09468852 -0.043212362 0.99456871 0.0017402786
0.59860635 0.16201058 0.011379763 9861505 -0.096913651 -0.037298717 0.99459368 0.0022900826
0.60729706 0.16501455 0.012644187 9664638 -0.098909862 -0.051619843 0.99375659 0.0029644156
0.625458 0.16639583 0.014228165 9663874 -0.10813169 -0.018422782 0.99396586 0.0043707169
0.63057947 0.16006984 0.015745863 10058120 -0.1327538 0.012466722 0.99107063 0.0041450392
0.64703065 0.16643929 0.017719254 9401214 -0.11215422 -0.055002242 0.99216747 0.0032835281
0.65499485 0.16229305 0.018649891 9335158 -0.079571754 -0.030746374 0.99635488 0.0019978748
0.67074507 0.1643656 0.019375995 9335415 -0.10285962 -0.051025387 0.99338627 0.0036152385
0.57530951 0.17186047 0.010318533 9270647 -0.10625167 -0.049142137 0.99312419 0.0016280242
0.58738977 0.17813452 0.011024967 9401469 -0.099882789 -0.048396718 0.99382156 0.0022972496
0.59855223 0.17528866 0.011884816 9532798 -0.1133965 -0.040987443 0.99270403 0.002233902
0.60951465 0.17948189 0.014883116 9465976 -0.10631834 -0.064488925 0.9922387 0.0027844755
0.62164503 0.175997 0.014105022 9597567 -0.10753576 -0.058879934 0.99245614 0.0035204564
0.631598 0.17907682 0.016072288 9531775 -0.11613043 -0.07178019 0.99063683 0.0049134628
0.6463185 0.17669195 0.016537979 9204344 -0.12142883 -0.032055221 0.99208242 0.0041235699
0.65680414 0.17500411 0.018520653 9071993 -0.093546987 -0.035555147 0.9949798 0.0036946128
0.67331874 0.17511182 0.018966824 9072508 -0.088571861 -0.021005688 0.9958483 0.0041723931
0.57446915 0.18214262 0.011012957 9204090 -0.096821211 -0.02784388 0.99491227 0.0017240015
0.6161238 0.18765394 0.016297385 8610672 -0.12200028 -0.064907737 0.99040544 0.0035083818
0.62514299 0.18185063 0.013178378 9269629 -0.1010192 -0.093652621 0.99046677 0.0046712379
0.63260728 0.18875381 0.016083851 8611949 -0.10676658 -0.080160849 0.9910475 0.004586699
0.643466 0.18637013 0.017734595 8348265 -0.10242691 -0.053957917 0.99327606 0.0033399248
0.65654707 0.18213883 0.016391285 9466746 -0.08549536 -0.074691296 0.99353492 0.0024378984
0.67060977 0.18163975 0.019959301 8940664 -0.090607926 -0.034420192 0.99529165 0.0038890187
0.57562274 0.19320135 0.011026159 8153201 -0.098296367 -0.032848816 0.9946149 0.002303692
0.59027457 0.19660865 0.010713413 9865369 -0.11375212 -0.048162762 0.9923411 0.0020313032
0.61455911 0.19406031 0.014574245 8678261 -0.11854216 -0.062167656 0.99100101 0.003127259
0.63227558 0.19789489 0.016499743 8611447 -0.10193315 -0.076470479 0.99184781 0.0034764425
0.66113508 0.19353251 0.015551787 8874614 -0.088929132 -0.060977086 0.99416977 0.0023633435
0.67616367 0.19606082 0.016963216 8348523 -0.090146407 -0.076504149 0.99298573 0.0020674451
0.68794012 0.19238299 0.016601022 8742767 -0.073667713 -0.11357589 0.99079442 0.0014283021
0.57604283 0.20181403 0.01120697 9269627 -0.11451282 -0.029241407 0.99299133 0.0020454614
0.58497238 0.20087649 0.012720168 9401214 -0.11202174 -0.04597611 0.99264163 0.0022855441
0.59692049 0.20103559 0.013383165 9466752 -0.12588644 -0.019240944 0.99185807 0.0017711935
0.60699058 0.20358448 0.01493784 9598847 -0.1251801 -0.033795059 0.99155825 0.0023959919
0.62308419 0.20828342 0.017268337 9073784 -0.12724763 -0.039686121 0.99107671 0.0028635878
0.64288265 0.20854637 0.018649861 9465977 -0.094234802 -0.038671758 0.99479866 0.0043285103
0.70518339 0.20333201 0.016753815 10256778 -0.07364057 -0.11361655 0.9907918 0.0014287238
0.56836724 0.2147646 0.011392549 9138549 -0.12179805 -0.0022388306 0.9925524 0.0030548593
0.58680862 0.21235776 0.012511477 9072241 -0.11776901 -0.026065413 0.99269891 0.0018481661
0.59781986 0.21885617 0.013730586 8810099 -0.13128519 -0.026012687 0.99100333 0.0020486726
0.60159272 0.21150568 0.014605924 9138806 -0.14694019 -0.028924298 0.98872238 0.0021037853
0.62933505 0.21745391 0.018092409 8939887 -0.11726195 -0.022152636 0.99285394 0.0058125691
0.64491063 0.21873322 0.018365771 9071990 -0.096290186 -0.03030646 0.99489182 0.0042578583
0.57474792 0.22437388 0.011790007 8940398 -0.14142965 0.014559173 0.98984128 0.0029309886
0.58908504 0.22193763 0.012078062 8744817 -0.10966798 -0.023949092 0.9936797 0.0022379158
0.60686833 0.22460739 0.014928187 8875125 -0.15265748 -0.021939244 0.98803562 0.002285932
0.61871195 0.22476995 0.016756624 8874610 -0.12044638 -0.016220789 0.99258733 0.0047476217
0.626553 0.2231276 0.019162253 9071473 -0.11720689 -0.031990774 0.99259216 0.0053349417
0.64290237 0.22724836 0.019264743 9006449 -0.093846098 -0.0022624247 0.99558419 0.0038897095
0.56962538 0.23365104 0.011277795 8809585 -0.14137612 0.013604404 0.9898625 0.0027301235
0.58874661 0.23246844 0.012591049 8809580 -0.13501 0.015679654 0.99072015 0.0029201703
0.59355962 0.2398212 0.013579801 8808303 -0.13707836 0.0030987086 0.99055535 0.0022242535
0.61500823 0.2367876 0.015934378 8808562 -0.12844957 -0.024675624 0.99140906 0.0039007231
0.62378782 0.2334943 0.017915219 8743025 -0.10800067 -0.0039191791 0.99414313 0.0046943566
0.63714594 0.23226634 0.016135767 8677742 -0.1036757 -0.014012366 0.9945125 0.0046144919
0.579364 0.24740775 0.011773005 8480115 -0.13278051 0.016191183 0.99101323 0.0028524967
0.64671218 0.24988866 0.018847346 8742510 -0.10438101 0.00021804124 0.99453741 0.0032571403
0.65301824 0.2454226 0.019354507 8546665 -0.12226824 -0.025530821 0.99216866 0.0054773795
0.84892195 0.27683663 0.018470787 9861257 -0.033398129 -0.15643686 0.98712319 0.035853732
0.90065944 -0.63052893 0.028322354 11375269 -0.11332263 -0.017387655 0.99340612 0.0014236437
0.86071318 -0.62080884 0.028684393 10718618 -0.094778284 0.022165984 0.99525166 0.0044864803
0.84014142 -0.61542296 0.025654897 10917539 -0.10536565 0.049423851 0.99320459 0.0032810511
0.85683662 -0.61067224 0.029655114 10784157 -0.11757562 0.042282891 0.99216336 0.0037335625
0.82844508 -0.6009798 0.02128163 10850203 -0.1030279 0.048907723 0.99347538 0.0032938733
0.84086859 -0.60845125 0.025663227 10980760 -0.11479517 0.045363348 0.9923529 0.0035710342
0.85887063 -0.60063177 0.029475361 11113377 -0.12449777 0.044527486 0.9912203 0.0037511853
0.89555472 -0.60366952 0.029828444 11507872 -0.082616217 -0.0079480503 0.99654973 0.0016549898
0.81209886 -0.59736294 0.024799138 10783132 -0.090310454 0.023219215 0.99564302 0.002571994
0.84288174 -0.59859627 0.0254758 11113121 -0.11749398 0.031694341 0.99256772 0.0041445335
0.79642093 -0.58402252 0.021587268 10323861 -0.092608735 0.0048361197 0.99569082 0.0016989851
0.82307249 -0.5864687 0.022745579 10849435 -0.092394985 0.0098182065 0.99567407 0.0028117038
0.84526253 -0.58521754 0.025292553 11244704 -0.12577324 0.021599952 0.99182391 0.0036678298
0.85733259 -0.58493769 0.026493408 11179166 -0.13691083 0.02927292 0.99015075 0.0031480305
0.86628234 -0.58633733 0.028342098 11507620 -0.10985907 0.016061258 0.99381745 0.0035531409
0.8002165 -0.57588303 0.020954624 10520725 -0.10355989 -0.011874073 0.99455237 0.0023113843
0.82137334 -0.57446557 0.023379862 10981277 -0.070616066 -0.0069796499 0.99747914 0.0017845707
0.86739922 -0.57562971 0.028354876 11376291 -0.11089652 -0.0025726005 0.99382859 0.0031899905
0.79665458 -0.56294876 0.022040665 10519954 -0.1058382 0.0085484451 0.99434662 0.0019629728
0.82243806 -0.5642581 0.023392037 11113116 -0.059770346 -0.012444368 0.99813461 0.0017661001
0.86851609 -0.56492215 0.028367653 11638692 -0.12098093 -0.0131777 0.99256742 0.0030976806
0.79953325 -0.55418444 0.021622881 11045526 -0.10851738 0.00062844536 0.99409437 0.0017418603
0.82350272 -0.55405062 0.023404226 11243934 -0.08081241 -0.0016252548 0.996728 0.0014658059
0.84261274 -0.55394673 0.026525028 11310237 -0.10927265 -0.0039498485 0.99400401 0.0024548592
0.86404872 -0.55098873 0.029534608 11376544 -0.13333365 -0.0079030357 0.99103969 0.0034919963
0.79468942 -0.54412246 0.02291964 10980247 -0.10542073 0.0025165847 0.99442452 0.0017343258
0.82698947 -0.54891628 0.022790387 11375255 -0.072439432 0.0067073349 0.99735028 0.0015547944
0.84927082 -0.54678982 0.025338411 11377312 -0.11291139 -0.011065126 0.99354351 0.0025743509
0.86888617 -0.54245305 0.028777897 11704735 -0.12824012 -0.0031078982 0.99173832 0.0030330501
0.79571974 -0.53424466 0.022931427 11242392 -0.092084348 0.015769742 0.99562633 0.0016621759
0.82249719 -0.53539777 0.024046466 11571611 -0.067745931 0.021027958 0.99748105 0.0016664214
0.85268974 -0.53762639 0.024851382 11442076 -0.12868911 0.0068912096 0.99166101 0.0022838833
0.80172062 -0.52379715 0.02187328 11046040 -0.096850872 0.015783334 0.99517375 0.0018983282
0.82808888 -0.52422941 0.023129836 11441310 -0.08728411 -0.0020736668 0.99618137 0.002264688
0.8561126 -0.52842504 0.024364397 11770525 -0.13519901 -0.0033247601 0.9908129 0.0026832656
0.86533564 -0.52919054 0.029752359 11704743 -0.14268565 -0.018884305 0.9895879 0.0035006693
0.87298357 -0.52209169 0.028418764 11901349 -0.13886963 -0.033882827 0.98973089 0.0028939801
0.80773675 -0.51320195 0.020815283 10980249 -0.1034048 0.0097264796 0.99459177 0.0030413796
0.84566259 -0.51526135 0.026770398 12098980 -0.11680505 -0.011589615 0.99308723 0.0022945066
0.87185818 -0.51396 0.028811902 11705000 -0.15693559 -0.03716993 0.98690915 0.0032710345
0.80506623 -0.50113887 0.021686181 11309974 -0.11745037 -0.012921851 0.99299473 0.0039353524
0.82393247 -0.50749034 0.024389759 11637669 -0.094856083 -0.041134827 0.99464077 0.003379252
0.83197469 -0.50112224 0.022847429 11966624 -0.094617881 -0.049080934 0.99430305 0.0031535137
0.84488136 -0.50386024 0.02718237 12032168 -0.10546521 -0.034722153 0.99381661 0.0025448939
0.86922759 -0.50133806 0.02959387 12033188 -0.16260163 -0.0077021201 0.98666173 0.0034907064
0.81040227 -0.49706444 0.020620406 11374741 -0.12571743 -0.03166154 0.99156076 0.0032014921
0.85250366 -0.49690413 0.025796339 12032417 -0.12959211 -0.016474655 0.99143052 0.0026446125
0.86940044 -0.49022102 0.029798865 11902378 -0.15261371 -0.0028261358 0.98828191 0.002651195
0.80586481 -0.48406607 0.021920696 11244185 -0.13183717 -0.044028081 0.99029315 0.0032330591
0.81684345 -0.48585805 0.02637884 11507102 -0.1384678 -0.041228067 0.98950845 0.0026023127
0.85323089 -0.48993248 0.025804669 11507874 -0.12276034 -0.015798492 0.99231064 0.0032086538
0.87201583 -0.48406816 0.02942276 11968423 -0.1536852 -0.01694528 0.98797458 0.0020725431
0.80597013 -0.47363907 0.022147253 11243421 -0.1360411 -0.046588201 0.98960721 0.002765019
0.81509244 -0.47435126 0.027012542 11769246 -0.12855154 -0.046154581 0.99062818 0.0028955985
0.84870458 -0.47665167 0.027015656 11771047 -0.079238474 -0.023000576 0.99659038 0.0021516669
0.87557322 -0.47834381 0.028854415 11968421 -0.1462072 -0.017942494 0.98909128 0.0020986975
0.80666018 -0.46702352 0.022155151 11638429 -0.13036881 -0.029062735 0.99103951 0.0034661568
0.82489777 -0.46522659 0.025163494 11835040 -0.10133462 -0.0057706819 0.99483567 0.0033130795
0.84603822 -0.46443203 0.02782701 11639458 -0.086910702 -0.0043077287 0.99620682 0.0021646295
0.87161762 -0.46896487 0.029824227 11836839 -0.14874071 -0.026709497 0.98851544 0.0013780252
0.79882902 -0.45264503 0.024206504 11638431 -0.14299822 -0.031479519 0.98922217 0.0019628715
0.82314485 -0.45373875 0.025797203 12164003 -0.07567817 0.013878373 0.99703574 0.0019481163
0.84957212 -0.45888892 0.027236044 11967907 -0.11215947 -0.026182635 0.99334526 0.0014779109
0.75879091 -0.44991696 0.020131722 11309717 -0.10961594 -0.012082294 0.99390066 0.0021697453
0.77996123 -0.44701391 0.02186425 11572897 -0.10097728 -0.045820709 0.99383307 0.0033629595
0.78749084 -0.44064173 0.020320699 11704476 -0.089936152 -0.040423598 0.99512684 0.0028467528
0.8044017 -0.44159332 0.023256138 11637912 -0.092836857 -0.01420494 0.99558002 0.0015837246
0.82384598 -0.44701713 0.02580522 11638177 -0.082071871 0.00022297166 0.99662644 0.0019517425
0.83110958 -0.443398 0.024362922 12032419 -0.079389095 0.0072926506 0.99681705 0.0016635108
0.85065466 -0.44851097 0.027248427 11901600 -0.11907201 0.0025917217 0.99288225 0.0013373335
0.80262244 -0.43040147 0.023911864 11834529 -0.091906175 0.0089945253 0.99572706 0.0022128802
0.83369285 -0.43749458 0.023956671 12164256 -0.077658251 -0.01841956 0.9968099 0.001410526
0.85173714 -0.43813297 0.02726081 12229539 -0.12352131 -0.0029366203 0.99233758 0.0014385622
0.76139933 -0.4249098 0.020161569 11441563 -0.12157122 -0.021058075 0.99235934 0.0033005634
0.78476614 -0.42915523 0.021220788 11769499 -0.087612405 -0.011930263 0.9960832 0.0031841877
0.80411798 -0.42077166 0.023816288 12098717 -0.10407324 0.0027072746 0.99456596 0.0033510784
0.82723892 -0.4239195 0.025626123 12099239 -0.090589002 -0.018457593 0.99571729 0.0022112462
0.84775192 -0.42911106 0.028267518 12295339 -0.10369597 -0.031991303 0.99409443 0.0019385453
0.85318047 -0.42429569 0.027277336 12230316 -0.1492167 -0.012984886 0.98871928 0.0011531957
0.77328795 -0.41697168 0.024116054 11769245 -0.12141382 -0.037878457 0.99187899 0.0032930265
0.78610671 -0.4163031 0.021236122 11835038 -0.071966544 -0.021197552 0.99718177 0.0028579417
0.80655038 -0.41157737 0.02350609 11836321 -0.10106671 -0.01496296 0.99476713 0.0042554936
0.85107321 -0.41616055 0.027884617 12296620 -0.10166602 -0.041800007 0.99394006 0.0016449451
0.78804898 -0.40708411 0.021025538 11836068 -0.060697973 -0.011804787 0.99808639 0.0023635831
0.80911392 -0.4058328 0.023084685 11901603 -0.13388318 -0.034150142 0.99040854 0.0035997014
0.81528306 -0.40487537 0.025186509 12033445 -0.12895018 -0.039659992 0.99085772 0.0031365198
0.8233453 -0.4046607 0.026889071 12033446 -0.102442 -0.052920423 0.9933303 0.0034681454
0.84990507 -0.40846878 0.028292164 12624548 -0.09308061 -0.034905627 0.99504656 0.0016654459
0.76213849 -0.39904752 0.020650566 11572885 -0.13451129 -0.027964523 0.99051738 0.0046656639
0.78342927 -0.39496198 0.022369564 12033187 -0.075479455 -0.0022389872 0.99714488 0.0033051828
0.81048763 -0.39266238 0.023100406 12033448 -0.12415481 -0.045492813 0.99121952 0.0045018648
0.823448 -0.39424497 0.027108148 12295337 -0.099744454 -0.028366705 0.9946087 0.0040668128
0.85287148 -0.39892074 0.027905196 12624556 -0.098211288 -0.019579388 0.99497294 0.001736758
0.76311427 -0.38969254 0.020661727 11704223 -0.13837457 -0.0018929765 0.9903782 0.0050181812
0.78067338 -0.38377488 0.023269303 12230054 -0.090519935 -0.0079400511 0.99586296 0.0034885849
0.8092916 -0.38529712 0.023537442 12163754 -0.10780911 -0.01730936 0.99402094 0.0062062223
0.81883001 -0.38193139 0.028362781 12361900 -0.11445589 -0.0099241538 0.99337876 0.0050189118
0.8492198 -0.38670099 0.028915718 12756144 -0.081119016 -0.019834049 0.99650705 0.0023960997
0.85277587 -0.38094574 0.028325006 12559533 -0.08110369 -0.014294967 0.99660313 0.0024853821
0.75723869 -0.37092295 0.022516623 12031906 -0.11630754 0.0074470043 0.99318534 0.0035132424
0.78388053 -0.37183118 0.022840366 12229280 -0.11612749 0.003038818 0.99322969 0.0048339469
0.80701941 -0.3741225 0.024300218 12229543 -0.094831318 -0.018017618 0.99533033 0.0051051723
0.81574321 -0.37380067 0.029199123 12492719 -0.11837157 -0.028443389 0.99256194 0.0045271912
0.80945963 -0.3648524 0.023990095 12426916 -0.10930283 0.0043815658 0.99399889 0.0047092093
0.81581151 -0.36045563 0.022710577 12426658 -0.12844996 -0.0096666943 0.99166894 0.0043850718
0.824817 -0.366974 0.027450673 12559015 -0.097080335 -0.018629869 0.99510217 0.0041529043
0.84721571 -0.36813098 0.029734641 12625582 -0.088433906 -0.002329519 0.99607933 0.0042608804
0.85492903 -0.36030346 0.028349638 12625585 -0.10261611 -0.014150727 0.99462038 0.0027702719
0.7875942 -0.35503197 0.022417217 12163747 -0.11440136 0.0014551232 0.99343359 0.0042495122
0.828574 -0.35453269 0.026948884 12493740 -0.075205907 0.0075035766 0.99713981 0.0037995162
0.85754681 -0.35409728 0.027958676 12755881 -0.11758649 -0.017156886 0.99291444 0.003314259
0.79145503 -0.34152329 0.02187936 12098727 -0.097272165 -0.043694984 0.99429822 0.002566518
0.80265677 -0.34532261 0.025940537 12296103 -0.12207858 0.0072000702 0.99249429 0.0038225856
0.82772261 -0.34383285 0.027374953 12231857 -0.090139598 -0.0099886842 0.99587905 0.002981208
0.85351181 -0.3455528 0.028964818 12362665 -0.094919115 -0.012074748 0.99541181 0.0024392316
0.7667588 -0.33597758 0.021183953 11836071 -0.13326478 -0.041705903 0.99020261 0.0018631811
0.79009259 -0.33108005 0.022445798 12230316 -0.12691954 -0.045612812 0.99086374 0.0025285778
0.8101688 -0.33451289 0.024561599 12624811 -0.10733094 6.124378e-05 0.99422336 0.0028337287
0.82651943 -0.3365052 0.027797043 12623792 -0.098153643 -0.0064986381 0.99515003 0.0024880813
0.85042053 -0.33740625 0.029771313 12755629 -0.093031995 -0.01089392 0.99560356 0.0029620293
0.76867628 -0.32698196 0.020965636 9928848 -0.13562483 -0.056245551 0.98916245 0.0017090221
0.78508073 -0.32271653 0.023785353 7626859 -0.12621233 -0.039728507 0.99120736 0.0025098706
0.81356198 -0.32552293 0.024037018 8153204 -0.085511588 -0.022661204 0.99607944 0.0025569852
0.82851136 -0.32683945 0.027601905 10388629 -0.10935377 -0.014404171 0.99389851 0.0026543038
0.76870567 -0.31731313 0.02120623 12821925 -0.13671736 -0.055620592 0.98904735 0.0017763625
0.781335 -0.31161699 0.024906576 12887208 -0.10537958 -0.044110723 0.99345326 0.0017853497
0.80603904 -0.31289661 0.025979236 13019306 -0.081741184 -0.036527485 0.99598402 0.0017675321
0.83275694 -0.31443033 0.026996747 13348537 -0.1103556 -0.03021422 0.99343282 0.0022186222
0.85255706 -0.31692311 0.029795766 13808309 -0.075173564 -0.03045569 0.99670529 0.0017272946
0.77157032 -0.30862385 0.020758465 12690609 -0.13179201 -0.048811667 0.99007487 0.001618284
0.81452847 -0.30213213 0.024386138 12689841 -0.095694847 -0.039992299 0.99460703 0.0021024167
0.83380264 -0.30440471 0.027008697 12822453 -0.11186692 -0.03397797 0.99314213 0.002137016
0.74924266 -0.29511473 0.02006878 12229542 -0.11195351 -0.026335223 0.99336445 0.0028699413
0.768758 -0.29803604 0.021687359 12231597 -0.13955425 -0.018536322 0.99004096 0.0014541136
0.77130139 -0.29242721 0.021235928 12427945 -0.14300287 -0.015845645 0.98959547 0.0014162333
0.78551984 -0.2950013 0.024372414 12558253 -0.099946812 -0.028524647 0.99458385 0.0016343405
0.82782114 -0.29573241 0.028465658 12822705 -0.11191831 -0.048508395 0.99253279 0.0019253637
0.75019121 -0.28602117 0.020079628 12164003 -0.09829402 -0.044249088 0.99417317 0.0027603544
0.76625746 -0.28445876 0.022619814 12887217 -0.12702119 -0.0073231254 0.99187297 0.0013888191
0.78462315 -0.28009278 0.024944201 12558768 -0.12818676 -0.0068403985 0.99172646 0.0013589588
0.80493426 -0.28582174 0.02686806 12755375 -0.10113998 -0.036523256 0.99420154 0.0014662785
0.82694799 -0.28524095 0.028891504 12953263 -0.10876217 -0.042804677 0.99314582 0.0017715793
0.85540575 -0.28961223 0.029828355 13216693 -0.065828823 -0.035703819 0.99719197 0.0021557007
0.72408503 -0.271974 0.020710051 12165284 -0.11899246 -0.036965799 0.99220681 0.0036711176
0.76595205 -0.27799913 0.022856593 12689589 -0.11514519 -0.023040229 0.99308151 0.0014866031
0.78656274 -0.27090034 0.024733558 12624556 -0.12780583 -0.0082420986 0.99176496 0.0010729585
0.80818951 -0.27344644 0.026454568 12624811 -0.12779167 -0.055651017 0.99023849 0.0013428592
0.82607013 -0.274795 0.029317275 13150902 -0.10678069 -0.034298416 0.99369085 0.0018320344
0.76786798 -0.26901871 0.022638232 12625324 -0.10674264 -0.030539928 0.99381757 0.001159847
0.78945732 -0.26195374 0.024301067 12690861 -0.10701513 -0.029811248 0.99381036 0.0010111843
0.80729055 -0.26323193 0.026895002 12690349 -0.13344057 -0.044166945 0.99007213 0.00099480909
0.82518744 -0.26439443 0.029743016 13084338 -0.10595861 -0.040603824 0.99354118 0.0013324176
0.74638623 -0.25688937 0.021770105 12754601 -0.098827615 -0.042431045 0.99419957 0.0022171498
0.76883423 -0.25975472 0.022649288 12559533 -0.11646299 -0.057413273 0.99153423 0.00229204
0.77123135 -0.25085545 0.022316307 12690868 -0.11967927 -0.060193069 0.99098629 0.0023245248
0.78662789 -0.2514714 0.025199935 12822703 -0.10382092 -0.056342989 0.99299884 0.0016411979
0.80605084 -0.25628346 0.027331561 12427177 -0.12455362 -0.045317441 0.9911775 0.0013039684
0.72903955 -0.24319117 0.02025643 12427177 -0.15187943 -0.026365034 0.98804736 0.002425567
0.74954307 -0.24536937 0.021310776 12491940 -0.10743262 -0.049308918 0.99298882 0.0017270154
0.7659952 -0.2400361 0.023818135 12625835 -0.10227967 -0.070487902 0.99225521 0.0021169928
0.78728473 -0.2451741 0.025207445 12755881 -0.10666353 -0.056667935 0.99267906 0.0017464159
0.80514318 -0.24615228 0.027771898 12821164 -0.11998399 -0.054594517 0.99127352 0.0015800523
0.72995847 -0.23438184 0.020266935 12426922 -0.14942162 -0.055931043 0.98719043 0.0013260038
0.74667436 -0.2353809 0.022268817 12492457 -0.13373503 -0.063322499 0.98899204 0.0021981376
0.76472515 -0.2334369 0.024284139 12560568 -0.099093929 -0.063137479 0.99307305 0.0019295437
0.78028852 -0.23703122 0.026989937 12886954 -0.10846204 -0.066352174 0.99188375 0.0016716118
0.80360574 -0.23264159 0.028430387 12821424 -0.1004313 -0.052309617 0.993568 0.0020660837
0.74427259 -0.22560233 0.023108348 12557224 -0.12647974 -0.06415578 0.98989242 0.0012144326
0.76663989 -0.22446781 0.024065778 13153212 -0.10702075 -0.068883903 0.99186772 0.002200024
0.77519459 -0.22945586 0.028328538 13018542 -0.10344151 -0.074885115 0.99181253 0.0016817497
0.80460763 -0.22303659 0.028441861 13151416 -0.077813312 -0.030014077 0.99651611 0.0025872278
0.72924131 -0.21318154 0.021024242 13482462 -0.13291341 -0.056271404 0.98952895 0.0021194112
0.74663961 -0.21696804 0.022763863 13417435 -0.11292122 -0.049217671 0.9923842 0.0010388736
0.76281118 -0.21423678 0.0252233 13352417 -0.12107079 -0.040524799 0.99181634 0.002228779
0.78448337 -0.21561894 0.026572302 14140897 -0.10808701 -0.043309223 0.99319768 0.0025138624
0.80272406 -0.21284501 0.02909641 13812705 -0.070207208 -0.0013300311 0.99753159 0.0031239789
0.72568536 -0.20048173 0.022259369 13351642 -0.1232874 -0.043304663 0.99142575 0.00284659
0.73080605 -0.20753886 0.020786956 13286623 -0.13004781 -0.065890297 0.98931599 0.0026327069
0.74326956 -0.2070993 0.023840025 13351646 -0.11963365 -0.040359776 0.99199742 0.0014979745
0.7615301 -0.20774366 0.025689155 13812447 -0.10391898 -0.018251119 0.99441832 0.0021284579
0.77969885 -0.20507681 0.027914435 14010594 -0.11766788 -0.024833474 0.99274242 0.0024864138
0.71052349 -0.19450949 0.020310663 13219799 -0.10406496 -0.018271621 0.99440265 0.0038764724
0.73185629 -0.19279076 0.020926565 13418206 -0.13152763 -0.025761634 0.99097776 0.00393605
0.74307334 -0.19492081 0.02420935 13549789 -0.11369056 -0.040336709 0.99269706 0.0020824466
0.76439995 -0.19900514 0.025241479 13681890 -0.09405867 -0.034228835 0.99497807 0.0013666812
0.7765007 -0.19812955 0.028809115 14009824 -0.13442934 -0.026468674 0.99056965 0.0023016362
0.78613037 -0.19042653 0.026823953 13943777 -0.088530794 -0.042163789 0.99518067 0.0043874718
0.81084055 -0.19153056 0.027837083 13680091 -0.10758325 -0.031657811 0.99369192 0.0039263838
0.72175813 -0.18198197 0.023745432 13352155 -0.12094846 -0.025015555 0.9923436 0.0036634007
0.7449621 -0.18618649 0.02398324 13417948 -0.1171504 -0.0060471743 0.99309582 0.0025486303
0.76567173 -0.18681225 0.025256023 13615329 -0.11726837 -0.018570526 0.99292666 0.0013062407
0.81151086 -0.18510447 0.027844757 14009056 -0.094643287 -0.057181317 0.9938677 0.0040235007
0.72745419 -0.1741645 0.022534773 13548764 -0.14148402 -0.037336048 0.98923624 0.0041387612
0.74397022 -0.1769505 0.024467319 13550045 -0.11338012 -0.026617646 0.99319506 0.0034562727
0.76662421 -0.17768084 0.02526693 13088985 -0.13250656 -0.051118299 0.9898631 0.0034660571
0.7806837 -0.17683092 0.028391346 13680604 -0.077744827 -0.053504858 0.99553651 0.0056854431
0.71217203 -0.16001694 0.020854756 13220060 -0.12352246 -0.06819915 0.98999554 0.0046563139
0.740547 -0.16537854 0.023571953 13549789 -0.12444841 -0.16328996 0.9786976 0.024186853
0.76468676 -0.16809273 0.025965557 13878754 -0.1042566 -0.10178933 0.98932785 0.0056221853
0.78036588 -0.16107346 0.028853312 13550047 -0.07524734 -0.032354068 0.99663991 0.0053690085
0.69026977 -0.15382761 0.020957798 12890070 -0.1362997 -0.019980747 0.99046618 0.0030550463
0.71114105 -0.15121354 0.021368191 13219542 -0.11234896 -0.075103305 0.99082655 0.0034898301
0.72830975 -0.15660357 0.02279973 12958167 -0.27226353 -0.16119154 0.94862527 0.041019678
0.73746634 -0.15494721 0.02662234 13351391 -0.18772668 -0.26544863 0.94567209 0.043637831
0.76305842 -0.15554167 0.026667699 13681375 -0.085996836 -0.12272909 0.9887073 0.017373994
0.80613947 -0.15185104 0.029811576 13285598 -0.062578484 -0.063536271 0.99601561 0.0047622724
0.693721 -0.14872769 0.02018711 12562128 -0.14158979 -0.019705765 0.98972929 0.0030849716
0.71106666 -0.14258337 0.021629959 13417176 -0.12492315 -0.01515994 0.99205059 0.002540577
0.72307914 -0.14124197 0.02452606 13088731 -0.34345961 -0.08161062 0.93561488 0.053166408
0.73821723 -0.14713328 0.02463609 13154775 -0.16257499 -0.2533544 0.95361465 0.090414993
0.74612582 -0.14401913 0.029571719 13879777 -0.84963578 -0.47591954 -0.22719955 0.068156943
0.81068265 -0.14596197 0.028962091 10585492 -0.11085902 -0.035221986 0.99321181 0.0055367528
0.69295621 -0.13740119 0.020718485 13219538 -0.14205365 -0.016410036 0.98972297 0.0025596197
0.71032178 -0.13103679 0.022146657 12826323 -0.13993688 -0.018441444 0.98998868 0.0019040458
0.72590667 -0.13285138 0.02404806 13023451 -0.3761721 -0.050862215 0.92515278 0.084697075
0.74337482 -0.13341881 0.025001109 13352922 -0.6735121 -0.3901121 0.62784874 0.12105187
0.80746579 -0.13913527 0.02982676 9466482 -0.072747275 -0.048926126 0.9961496 0.0037042075
0.6962238 -0.12939766 0.020080701 12957397 -0.13732494 0.0075960234 0.99049693 0.002994536
0.72680771 -0.12421253 0.024058372 12957906 -0.31492111 0.24070823 0.9180873 0.10356445
0.74953401 -0.12360944 0.024530977 10194344 -0.088033214 0.20678347 0.9744181 0.12338198
0.75427401 -0.12710878 0.029450402 13813719 0.043542732 0.11147764 0.99281257 0.11296231
0.76252306 -0.12523389 0.021766089 11510461 -0.81676507 -0.57110757 -0.082042567 0.076085746
0.70812446 -0.11939897 0.023040697 12760524 -0.13298136 0.0048893378 0.99110651 0.0021226134
0.7152797 -0.11153549 0.021415547 12760782 -0.28001869 -0.17615582 0.94369417 0.082294032
0.72770882 -0.11557368 0.024068683 12564430 -0.21309148 -0.040040281 0.97621149 0.13560231
0.74561793 -0.11428858 0.025724754 9469588 -0.03128903 0.28900358 0.95681661 0.20380695
0.75617534 -0.11826852 0.029231876 13486039 0.072926916 0.58842748 0.80525452 0.22589812
0.69583732 -0.10977963 0.020751446 12234187 -0.19837326 -0.087955341 0.97617209 0.019606903
0.7122997 -0.10273051 0.02243191 12497874 -0.34899184 -0.18512866 0.91865772 0.096952908
0.73036212 -0.1041732 0.023716301 12434115 -0.31519338 -0.52955443 0.78754377 0.12017425
0.74623209 -0.10840052 0.025731787 8483716 -0.083366692 0.34172222 0.93609613 0.16580142
0.69737083 -0.090412959 0.020904019 12168907 -0.32319871 -0.05316525 0.94483656 0.070953228
0.71545839 -0.091385208 0.024388064 11053236 -0.80277896 -0.42919609 0.41392833 0.086434796
0.72591442 -0.095402792 0.02311334 12828874 -0.74599689 -0.63329399 0.2059793 0.07789658
0.67635828 -0.080984913 0.021202579 12298703 -0.10794905 -0.021538803 0.99392307 0.0021156524
0.7126528 -0.083821192 0.026627973 8947837 -0.88396329 -0.27160856 0.38057542 0.12470131
0.69513261 -0.079219066 0.02182366 12102090 -0.35400248 -0.10583639 0.92923677 0.092009611
0.71157098 -0.074025176 0.026361069 7564899 -0.91146588 0.030099047 0.41027305 0.11566547
0.69821924 -0.068285391 0.021318838 11772618 -0.34294909 -0.011284305 0.93928629 0.067436643
0.70711386 -0.063028224 0.022012994 10456221 -0.77625716 0.15988746 0.60980392 0.090010762
0.7143361 -0.06261149 0.026046751 5722167 -0.90598959 0.19998659 0.37307945 0.075489536
0.69799793 -0.051749066 0.021856442 12362177 -0.3010518 0.060336709 0.95169705 0.043609686
0.71522719 -0.052030563 0.026013635 5655094 -0.73599797 0.30368662 0.60504657 0.07224533
0.72041494 -0.053043447 0.025259994 4802083 -0.92006755 0.35841247 0.15816531 0.0286508
0.69622207 -0.040787555 0.022646293 11376562 -0.20350459 0.033734754 0.97849262 0.023577504
0.71786416 -0.040787321 0.025661051 5784631 -0.5567525 0.2751877 0.78377193 0.071374558
0.72364199 -0.042762984 0.0240051 5523245 -0.90313101 0.40695214 0.13691011 0.021934781
0.71769691 -0.032299589 0.023018882 8086359 -0.39379337 0.20035532 0.89709789 0.04668412
0.72506714 -0.032820016 0.024425533 7888724 -0.63803285 0.48306084 0.59963852 0.056642205
0.75421619 -0.031855844 0.025823131 7692883 -0.073876806 0.20998167 0.97491026 0.022452055
0.76359314 -0.037764963 0.029557019 6377006 -0.034092594 0.3413536 0.93931651 0.026748648
0.69931412 -0.029800842 0.022141546 10192788 -0.15775864 0.037064083 0.9867819 0.0044932221
0.71808696 -0.02388674 0.023154676 8415843 -0.30730006 0.17187802 0.9359619 0.034109484
0.72752649 -0.023738377 0.026618257 8349794 -0.10937683 0.21617059 0.97020978 0.036282074
0.75286937 -0.026022343 0.026303157 8414307 -0.042575624 0.15271842 0.98735219 0.022757098
0.68668753 -0.019215306 0.020210728 11705787 -0.11988966 0.0090630883 0.99274582 0.0022822472
0.70045871 -0.018827999 0.022154644 10454931 -0.14088343 0.0092774238 0.98998272 0.0021823219
0.71651906 -0.015559415 0.023793265 8546409 -0.14524612 0.065206513 0.98724455 0.010135071
0.72969353 -0.0123213 0.026387885 8941164 -0.10116417 0.0034812822 0.99486369 0.0039892672
0.75182486 -0.0172903 0.026786625 8809578 -0.11801524 0.023785032 0.99272692 0.0055365972
0.70062488 -0.0079056611 0.02242662 8746107 -0.13903129 0.013426299 0.990197 0.0016281243
0.71994114 -0.0014395537 0.023307189 8809835 -0.13847993 -0.0083968798 0.99032968 0.002112427
0.72004288 -0.0098082963 0.023045734 8808562 -0.13592742 0.006263467 0.99069905 0.0019540966
0.73254782 -0.0036730436 0.025910199 8482407 -0.11384448 -0.016008055 0.99336964 0.0029341972
0.75304687 -0.0055748196 0.026800603 8875623 -0.10817379 -0.020470539 0.99392122 0.0029993656
0.69820845 0.0041989442 0.022004992 9664644 -0.1277325 0.0095095905 0.99176311 0.0021597669
0.71914762 0.0096409889 0.023823336 8940909 -0.14783254 -0.003295023 0.98900694 0.0026059439
0.73442441 0.0049591409 0.025676504 8744304 -0.11687248 -0.019063586 0.99296397 0.0024364593
0.74343586 0.0053859223 0.029415518 9071725 -0.10365465 -0.019878056 0.99441475 0.0023184153
0.76991409 0.0040588137 0.029148802 10718123 -0.099131703 0.0068778321 0.99505055 0.0018058192
0.70354486 0.015423626 0.022324994 8678513 -0.15951116 0.010522167 0.98714006 0.0032053818
0.72002381 0.018041132 0.023833364 8678506 -0.17973632 -0.017740725 0.9835549 0.0028904013
0.73167539 0.016038187 0.026665725 8941424 -0.12821302 -0.0089494344 0.99170631 0.0033516034
0.75222725 0.014686299 0.027534381 9005943 -0.093464747 0.0012355298 0.99562186 0.0019047664
0.77134174 0.013052215 0.029045001 11311285 -0.092226967 0.0092053562 0.99569547 0.0020956243
0.67148548 0.022100078 0.020153895 11706294 -0.085511535 -0.018768573 0.99616039 0.002589484
0.69272745 0.02937581 0.020002291 9862794 -0.10268615 0.0039390232 0.99470603 0.0037989016
0.71597427 0.025935685 0.025100097 8744295 -0.16997859 -0.0074665253 0.98541951 0.0029824516
0.7305932 0.024379639 0.027163684 8809841 -0.12760724 -0.00052689388 0.99182463 0.0039044425
0.75116575 0.023255428 0.028017685 8876155 -0.071999647 -0.016260223 0.99727213 0.0015395381
0.76912749 0.024680389 0.029860586 11772355 -0.096667476 0.0063340371 0.9952966 0.0022021176
0.71219879 0.035751153 0.022531494 8743790 -0.18805523 -0.017833734 0.98199654 0.0036004214
0.7334547 0.033096109 0.026686087 8875377 -0.11673379 -0.0092033083 0.99312061 0.0036180981
0.75287366 0.034942865 0.027913347 9665675 -0.083151124 -0.0085859662 0.99649996 0.0019618324
0.77284515 0.036853913 0.029302478 12627926 -0.10685325 -0.02546919 0.99394858 0.0017759248
0.66332489 0.041824307 0.02037333 11573941 -0.14014758 -0.026184304 0.98978436 0.0029320263
0.69286948 0.040051688 0.020281449 9270916 -0.085594535 -0.024695044 0.99602395 0.0042625307
0.70695227 0.049646612 0.022409007 8941934 -0.14963216 -0.045477472 0.98769534 0.0037326913
0.71582508 0.047865406 0.025754943 8809842 -0.15030774 -0.013862498 0.98854208 0.0041995235
0.73562968 0.044588961 0.026455805 9007991 -0.102785 0.0061064516 0.99468488 0.0027350949
0.75210774 0.046346165 0.028400019 10520989 -0.10021737 -0.0068555279 0.99494201 0.001876372
0.70381379 0.059983801 0.023543373 9006707 -0.10989553 -0.024799258 0.99363375 0.0049361708
0.71698189 0.058955707 0.025768191 9138290 -0.11963294 -0.010451457 0.99276316 0.0049623367
0.73978746 0.05637541 0.025737867 9138050 -0.10573088 0.014509604 0.99428892 0.0020003419
0.7475636 0.054331038 0.029710457 10520484 -0.11266354 0.0035096053 0.99362701 0.0023636641
0.65591246 0.068590745 0.020668387 10849960 -0.1334098 0.025577052 0.99073088 0.0037268372
0.68820429 0.060528696 0.022170693 9534335 -0.10448676 -0.023765422 0.99424231 0.0033777209
0.70466626 0.0681566 0.023553133 9007990 -0.092415422 -0.0096381139 0.99567389 0.0046642041
0.71834445 0.067346908 0.025652483 9008762 -0.13029063 0.0092547527 0.99143267 0.0043036304
0.73800331 0.067345478 0.026482955 9600137 -0.11256705 0.027844908 0.99325389 0.002133325
0.75541508 0.063994393 0.028066307 10981550 -0.12330202 0.021098653 0.99214488 0.0026942815
0.67745042 0.07463678 0.020079672 10653347 -0.12658903 0.073645227 0.98921776 0.0022483473
0.6873402 0.070873536 0.022715837 9534340 -0.097101815 0.021189403 0.99504888 0.0036457446
0.70551872 0.076329395 0.023562878 9664123 -0.10157484 -0.00011717342 0.99482793 0.0039138752
0.72814178 0.077181473 0.023401022 9271678 -0.10741557 0.033211123 0.99365938 0.0021953299
0.73492116 0.075230427 0.027468354 10061717 -0.104709 0.028280184 0.99410075 0.0022497256
0.75613225 0.07555604 0.028198361 11639993 -0.12265249 0.031923663 0.99193615 0.0023730574
0.69043094 0.081875727 0.022196174 9204337 -0.11922072 0.050265193 0.99159461 0.0027350725
0.7120378 0.082853921 0.022017077 8479076 -0.08620064 0.02359187 0.99599844 0.0020127816
0.72335023 0.087306656 0.024921894 9006449 -0.1097604 0.024290778 0.99366122 0.0027635396
0.73978412 0.084418572 0.026503339 9335929 -0.084667847 0.0089654848 0.99636889 0.0020165276
0.75953078 0.084706388 0.027617946 10057091 -0.11207218 0.041419439 0.99283648 0.0015154242
0.69104755 0.092444338 0.022341952 9005937 -0.1324774 0.026896356 0.99082106 0.0034470332
0.71396649 0.096678615 0.021904096 9203056 -0.08008948 -0.021154922 0.9965632 0.002360306
0.7232272 0.095470771 0.025183097 9269364 -0.11106992 -0.010667825 0.99375534 0.0034837604
0.73768812 0.09239915 0.027244866 9730432 -0.10787777 0.007188194 0.99413818 0.0029714298
0.7402721 0.098455764 0.02676408 10125190 -0.10255955 0.0082454272 0.99469268 0.0030389274
0.75875384 0.096003562 0.028104499 10979721 -0.078256071 0.012616385 0.99685347 0.003070822
0.76213205 0.09089905 0.027152285 10847373 -0.11038169 0.04584093 0.99283159 0.001379814
0.65665448 0.10356143 0.021554142 9599097 -0.081975564 0.0097979661 0.9965862 0.0057639163
0.66016185 0.10932972 0.02071701 9533564 -0.076795228 0.0038906655 0.99703932 0.0071518207
0.69166255 0.10299779 0.02248776 9137519 -0.13375504 -0.0222064 0.99076563 0.0033713197
0.70836031 0.10357206 0.023595393 9269362 -0.089951813 0.0089779124 0.9959057 0.0026001954
0.72679442 0.1016387 0.024436072 9465979 -0.11130564 -0.03525386 0.99316078 0.0030612086
0.73441505 0.10852338 0.025599003 9796479 -0.11426963 -0.013138277 0.99336284 0.0038017929
0.74385643 0.1047444 0.026039585 10387333 -0.08348342 -0.026771 0.99614954 0.0037734169
0.75916553 0.10463634 0.028233066 10913681 -0.078417204 -0.0035062099 0.99691451 0.0028467898
0.69249606 0.11098871 0.022497296 9006960 -0.13433468 -0.011250783 0.99087214 0.0034868226
0.70864177 0.11559887 0.023868687 9401717 -0.09526974 -0.00068596151 0.99545127 0.0024307794
0.72664779 0.1165852 0.024893969 9730432 -0.11295332 -0.0063090804 0.99358028 0.0035943934
0.73905432 0.11485542 0.02751565 10323333 -0.10600834 -0.0054263636 0.99435049 0.0043293089
0.7628783 0.11679893 0.027656242 10783631 -0.079943828 -0.035020109 0.99618399 0.0034226202
0.78112549 0.11154418 0.029277071 11242644 -0.1302103 -0.0031869859 0.9914813 0.002503857
0.67970878 0.12883806 0.02110289 9400948 -0.11918767 -0.017862329 0.99271107 0.0023710001
0.69781274 0.12004507 0.021309316 9269618 -0.12487033 -0.0025575832 0.9921698 0.00228686
0.70667058 0.1298683 0.022007704 9401719 -0.093010068 0.01803134 0.99550188 0.0014259276
0.72970712 0.12956336 0.024469391 9928070 -0.12631929 0.029696668 0.99154508 0.0044095861
0.73823452 0.12571277 0.028016582 10321549 -0.13515547 -0.019843983 0.99062568 0.0060363952
0.7446425 0.12163847 0.026303753 10716046 -0.12595212 -0.032873325 0.9914915 0.0054594376
0.78177476 0.12480985 0.029464714 10979992 -0.086088769 -0.028407501 0.99588245 0.0040894034
0.68224835 0.13458532 0.020562008 9533302 -0.12361542 -0.0065393378 0.99230868 0.0027153159
0.70977086 0.13575299 0.024151668 9795455 -0.092042401 0.0057304148 0.99573863 0.0015610924
0.72928923 0.13490097 0.024727225 10059399 -0.14139609 0.014908854 0.98984087 0.0043870462
0.74412543 0.13539819 0.026808158 10454157 -0.15536249 0.018209826 0.98768973 0.005262706
0.75768769 0.13264666 0.029330865 10979219 -0.085870802 -0.022062495 0.99606198 0.0037080585
0.68506503 0.14298862 0.0200243 9532275 -0.1298288 -0.0063359682 0.99151623 0.0023015742
0.69555306 0.14029638 0.022532269 9402232 -0.10643181 0.0067628045 0.99429703 0.0014931719
0.71512556 0.14510792 0.022997633 9795966 -0.076972738 -0.016123883 0.99690282 0.0029386757
