# .PCD v0.7 - Point Cloud Data file format
VERSION 0.7
FIELDS x y z rgb normal_x normal_y normal_z curvature
SIZE 4 4 4 4 4 4 4 4
TYPE F F F U F F F F
COUNT 1 1 1 1 1 1 1 1
WIDTH 547
HEIGHT 1
VIEWPOINT 0 0 0 1 0 0 0
POINTS 547
DATA ascii
2.4909544 -0.68363684 0.18558308 5713207 -0.96839333 0.098168015 -0.22929786 0.026455572
2.4950919 -0.67342764 0.18261635 4527145 -0.99387205 0.051528841 0.097791918 0.049107049
2.4928923 -0.66487348 0.18638101 4463403 -0.98497111 0.015845772 -0.17199101 0.038170654
2.4967501 -0.65421247 0.18305135 4790302 -0.98691565 0.015681541 0.16047299 0.049215075
2.4948304 -0.64611024 0.18717888 4856095 -0.98523396 -0.070334628 -0.15609972 0.033446342
2.4967322 -0.63511711 0.18217239 4525849 -0.96102995 0.15879309 0.22628763 0.068889961
2.4967682 -0.62734693 0.18797675 4528157 -0.98706549 -0.050567489 -0.15213378 0.042995322
2.4974368 -0.61706454 0.18184683 3802902 -0.96507031 0.097936511 0.24299748 0.075933702
2.5000663 -0.6157822 0.18392131 4855844 -0.98912352 0.12538446 0.076898865 0.049811564
2.4987063 -0.60858357 0.18877468 4658979 -0.98222739 0.18769254 0.0010023117 0.055948734
2.5206058 -0.60069722 0.18488023 4659230 -0.99073809 0.12318754 0.057122156 0.060179859
2.4998176 -0.59889215 0.18283513 3673869 -0.99676037 -0.026792314 0.075835705 0.080321148
2.5014215 -0.58526999 0.18669802 4264219 -0.99276704 0.097067565 0.070650272 0.06947504
2.5222762 -0.58133787 0.18531847 4723242 -0.98486322 0.12144073 0.1236794 0.050986893
2.5045791 -0.56254739 0.1848118 4131608 -0.97389674 -0.049305473 0.22157177 0.090929143
2.5239468 -0.56197858 0.18575671 4788005 -0.99870402 0.00099527685 0.05088494 0.030227493
2.5069599 -0.54437506 0.18580016 4000522 -0.95177978 0.11335116 0.28507361 0.061009917
2.5066986 -0.53892177 0.18566123 4657423 -0.99756449 0.0038579041 0.069643505 0.021380136
2.4916246 -0.5228489 0.18734321 4000271 -0.90029013 0.027589131 0.43441525 0.072133966
2.5083566 -0.51970667 0.18609622 4656144 -0.99940908 -0.016747853 0.030016389 0.020310059
2.5108681 -0.5042609 0.18715398 4590612 -0.98588133 -0.0050685816 0.16736884 0.026145425
2.5128875 -0.48556718 0.18786566 4197139 -0.98570263 0.096915394 0.13783233 0.027123338
2.5133309 -0.46206129 0.18740118 4131869 -0.99603611 0.083707318 -0.030086035 0.033496305
2.5149889 -0.44284618 0.18783614 4264472 -0.99703413 0.056723282 -0.052013621 0.042201199
2.5166471 -0.42363104 0.18827114 4199182 -0.9994626 0.030962249 0.01076863 0.034672584
2.5183051 -0.40441594 0.1887061 4853521 -0.99846095 0.054231599 0.011603311 0.035872258
2.5199633 -0.3852008 0.18914109 4197137 -0.97765237 0.13612773 0.16020347 0.03122478
2.5196617 -0.36344206 0.1807895 3605774 -0.97282064 0.22749881 0.043177608 0.036648925
2.5216212 -0.36598569 0.18957606 4722189 -0.99580032 0.038869321 0.082891025 0.042416152
2.5215998 -0.34467876 0.18158737 4267281 -0.99868059 0.049324445 0.014291005 0.034797464
2.4921613 -0.33871785 0.18072072 7886163 -0.9642452 -0.19011395 0.18462886 0.1022804
2.5113151 -0.32261151 0.18113193 3279117 -0.94670129 -0.025535362 0.32109904 0.093679845
2.5235376 -0.32591546 0.18238524 3736849 -0.99422717 0.079247661 -0.072333954 0.03221643
2.513679 -0.30456737 0.18211326 3735557 -0.94053423 0.18723848 0.28343803 0.053343792
2.5254757 -0.30715215 0.18318316 3802634 -0.99357933 -0.11296708 -0.0062087178 0.02933974
2.5160429 -0.28652325 0.18309465 3737614 -0.91081864 -0.019322434 0.41235447 0.045855694
2.5274136 -0.28838879 0.18398103 4197390 -0.97953844 -0.20098418 -0.010479033 0.026030002
2.501554 -0.26702413 0.18461987 3933451 -0.94601631 -0.028161177 0.32289341 0.052885942
2.5109625 -0.26799083 0.18491915 4000784 -0.98402429 -0.16887788 -0.056360535 0.037270486
2.5039022 -0.24910069 0.18559465 3410693 -0.93822086 0.13545005 0.3184256 0.060007893
2.5128865 -0.24936379 0.18571123 3344136 -0.99100053 -0.12919129 0.035036132 0.051780041
2.5062504 -0.23117727 0.18656948 3213316 -0.9634757 0.089864612 0.25226775 0.069337092
2.5148103 -0.23073678 0.18650332 3542040 -0.99848491 0.027637161 0.047582 0.04525011
2.5167344 -0.21210976 0.18729541 3343632 -0.99818337 0.054007836 0.026704956 0.046068456
2.5254989 -0.21434674 0.18702009 3672850 -0.98620367 -0.037405375 0.16125505 0.061514072
2.5148025 -0.19440657 0.18830329 3803674 -0.99363595 0.05117451 0.10034321 0.059384741
2.520582 -0.17485571 0.18887964 3934482 -0.99959356 -0.019406635 0.020883605 0.034249183
2.5050585 -0.15545723 0.18977138 3737877 -0.99897581 -0.041221105 0.018657893 0.019535171
2.525809 -0.032279175 0.18039969 4925989 -0.99999881 -0.0010825768 -0.0011587143 0.064677194
2.5281572 -0.014355788 0.18137452 4201755 -0.98352468 0.12479844 0.13078436 0.043031551
2.5305054 0.003567656 0.18234929 4135970 -0.94235289 0.058759622 0.32942143 0.081041619
2.5147231 0.020972727 0.18391129 4068897 -0.94361168 0.05940615 0.32568067 0.082997233
2.5352015 0.039414514 0.1842989 4265765 -0.80303121 0.15513436 0.57539046 0.077560455
2.5394614 0.049878072 0.18016031 3411719 -0.99571276 -0.029474659 0.087678157 0.02537778
2.5375497 0.057337988 0.18527368 4135719 -0.81692088 0.077572182 0.57150924 0.078775793
2.5238075 0.067723535 0.18111232 3147525 -0.99009436 -0.020294605 0.13892902 0.019515475
2.5398979 0.075261377 0.18624845 4069664 -0.94759393 0.0012655307 0.31947491 0.11540123
2.5257182 0.086221837 0.18189892 2951424 -0.96215439 0.14547631 0.23042485 0.027099153
2.5240486 0.09215349 0.18778256 4726827 -0.98854125 -0.045446482 0.1439475 0.11496249
2.5276287 0.10472014 0.18268558 3213829 -0.95526546 0.23892416 0.174308 0.023583293
2.5244744 0.11270557 0.18032169 5318690 -0.99304056 0.10491271 0.053514224 0.05337603
2.5445943 0.11110824 0.18819806 4662831 -0.99054551 -0.13711989 -0.0042107105 0.064839214
2.5470498 0.12670888 0.18625078 4003103 -0.96444458 0.23282267 0.12506115 0.046979733
2.5444305 0.13292997 0.18122798 5515822 -0.97256511 0.19246437 0.13067006 0.051440097
2.5490808 0.14301316 0.1841208 3213578 -0.9758845 0.14124483 0.1664312 0.07450822
2.5277433 0.15058939 0.18117929 5382439 -0.94169945 0.075864136 0.32779083 0.086196639
2.5293777 0.16953133 0.18160811 5778994 -0.95351946 0.22753894 0.19755206 0.098242238
2.5510049 0.16164018 0.18491289 3409167 -0.97104794 -0.080383353 0.22495431 0.089203164
2.5310123 0.18847327 0.18203691 6306878 -0.90266711 0.27787325 0.32860091 0.095795751
2.5529287 0.18026723 0.18570498 4262680 -0.97039866 0.048941202 0.23649792 0.098446846
2.5548527 0.19889425 0.18649706 4135457 -0.9588728 0.04245929 0.28064233 0.090472154
2.5510156 0.20924403 0.18295556 7819085 -0.98301864 0.17365585 0.059312828 0.051489599
2.5567765 0.21752127 0.18728915 5319211 -0.98293376 0.10767519 0.14915527 0.064172126
2.5526621 0.22832249 0.18338743 7490635 -0.95818317 0.1332397 0.25324342 0.11929129
2.5587003 0.23614822 0.18808123 4659994 -0.98253495 0.011511657 0.18572204 0.060264543
2.5359159 0.245299 0.18332329 8148052 -0.95222449 0.10767651 0.28578722 0.11440025
2.5429137 0.25270647 0.18897852 3608333 -0.87987065 -0.031385917 0.47417575 0.086145818
2.5559547 0.26647955 0.18425122 7751754 -0.9963221 0.084733069 -0.012752169 0.034066122
2.5411358 0.2718333 0.18068913 7953251 -0.98554152 -0.021642579 0.16804628 0.086812586
2.5625482 0.27340227 0.18966547 3672850 -0.97211421 -0.0044794888 0.23446511 0.04568062
2.5434673 0.28962851 0.18165693 7952740 -0.99874884 0.013989083 0.048011605 0.078915067
2.557601 0.28555816 0.18468311 7620418 -0.98879004 0.10810925 -0.10298854 0.031980369
2.5285239 0.30499291 0.18318614 7624286 -0.98107535 0.19154577 -0.028309735 0.077294484
2.5592473 0.30463666 0.18511501 8015184 -0.98813713 0.0069499253 -0.15341701 0.021066969
2.5308394 0.32266736 0.18414739 7887452 -0.98425049 0.050521914 0.16940652 0.1151426
2.5608935 0.32371515 0.1855469 8017998 -0.9982053 0.050989393 0.031406373 0.042798478
2.533155 0.34034193 0.18510863 7624029 -0.93426108 0.063134678 0.35095629 0.1186735
2.5625398 0.34279364 0.18597877 7756624 -0.9942621 0.10170887 0.03313918 0.031697486
2.5354705 0.35801637 0.18606988 7690584 -0.89477772 0.083507471 0.43863362 0.11358214
2.5641861 0.3618722 0.18641067 7953241 -0.98684245 0.12510876 0.1024199 0.02377975
2.555124 0.37860441 0.18649605 7295064 -0.95000029 0.026402395 0.31113094 0.078724533
2.5658324 0.38095075 0.18684256 7887442 -0.99093556 0.070839331 0.11414279 0.023675373
2.5401018 0.39336532 0.18799236 7624290 -0.93204165 -0.012841714 0.36212379 0.09726835
2.5674787 0.40002924 0.18727446 8084569 -0.98902506 -0.03893967 0.14252447 0.0430866
2.5424173 0.41103989 0.18895367 6967639 -0.85427678 -0.037856739 0.51843804 0.096408188
2.5691249 0.41910779 0.18770634 8215639 -0.99329108 -0.079233497 0.084231861 0.042972308
2.5447328 0.42871433 0.18991491 7229530 -0.87034786 -0.07510183 0.4866769 0.094734132
2.5707712 0.43818629 0.18813823 8215637 -0.9950403 0.082085259 0.056186009 0.048653994
2.5724175 0.45726478 0.18857013 7951956 -0.97941011 0.20175704 0.0070626964 0.042559437
2.5767837 0.47792619 0.18457806 8149088 -0.95837831 -0.01493013 0.28511071 0.042728908
2.5635734 0.49438548 0.18110612 8216166 -0.97074157 0.0038698316 0.24009553 0.020013232
2.5757101 0.4954218 0.1894339 8149343 -0.96867239 -0.1724645 0.17868911 0.15702833
2.4685216 0.5171721 0.18186304 7755612 -0.24111974 -0.12733673 0.96210539 0.026779834
2.565484 0.51288378 0.18189272 8084069 -0.96883488 0.02468396 0.24647455 0.015797134
2.5773563 0.51450038 0.1898658 7952479 -0.9555853 -0.16587636 0.24360178 0.034366891
2.5418644 0.52527678 0.18921278 7754326 -0.97770166 -0.16792239 -0.12610151 0.06345129
2.4871242 0.53813964 0.18224594 7427926 -0.48144534 0.10158841 0.87056893 0.057478841
2.5673945 0.53138208 0.18267933 8084839 -0.94695222 -0.087163486 0.3093285 0.019087305
2.5693052 0.54988039 0.18346599 8019044 -0.92383134 -0.11144119 0.36621925 0.013397357
2.5232255 0.56358641 0.18206432 7166298 -0.71713531 0.11610243 0.68719524 0.080450624
2.553308 0.56411326 0.18439063 7821919 -0.98289466 -0.16683497 0.078001633 0.04161641
2.5419033 0.58512729 0.18247834 7034199 -0.93581426 0.011323933 0.35231158 0.059476785
2.5552053 0.58248276 0.18517181 7822688 -0.97801989 -0.1859815 -0.094275787 0.046702743
2.544203 0.6026811 0.18343303 7230551 -0.93502825 -0.068539873 0.34788576 0.074988946
2.5571024 0.60085243 0.18595293 7887201 -0.98963094 -0.14342 -0.0078347791 0.053092167
2.5300803 0.61590832 0.18490991 7165016 -0.95440078 0.022990707 0.29764175 0.076072432
2.5589998 0.61922199 0.18673411 7821408 -0.99636245 0.0066141319 0.084959894 0.041405637
2.5323653 0.63334888 0.18585846 6902362 -0.92240798 -0.042023577 0.38392389 0.062414732
2.5608971 0.63759154 0.18751523 7362911 -0.9912619 -0.040438615 0.12555735 0.038564794
2.5181985 0.64623684 0.18731698 6903127 -0.89837599 -0.011482357 0.4390772 0.059194762
2.5448205 0.651052 0.18840706 7557982 -0.99253309 -0.1028578 -0.065562531 0.056057081
2.5369351 0.66823035 0.18775555 6771540 -0.82876366 0.10067888 0.55046767 0.078374065
2.5467048 0.66929293 0.1891827 7427679 -0.98375964 -0.12504598 0.12876536 0.039502691
2.5227387 0.68089187 0.18920174 6573908 -0.85303015 0.10750207 0.51066917 0.061272435
2.5485888 0.68753374 0.18995839 7361884 -0.96953434 -0.065960489 0.23590764 0.021306666
2.4167845 0.74898499 0.18242052 7100757 -0.12145162 -0.052201696 0.99122375 0.0028421192
2.4343956 0.77074564 0.18279687 7164754 -0.1754514 0.021698624 0.984249 0.018904002
2.0502961 0.79640085 0.18266849 6634303 0.0034051856 -0.97241294 -0.23324135 0.031068528
2.0846384 0.79574955 0.1835009 6767690 0.070753813 -0.98560387 -0.15355438 0.03864738
1.7953894 0.80443269 0.1895224 6565665 -0.079615317 -0.99670309 0.015633496 0.0041659116
1.9052703 0.80668229 0.18049583 7421499 0.11700989 -0.97726738 0.17679708 0.043849207
1.9638125 0.80246896 0.18066317 7028540 0.0024388016 -0.99998134 -0.005604744 0.0035869998
2.0066772 0.8067894 0.1818074 6634303 0.019378042 -0.99933851 -0.030775391 0.0096114594
2.028501 0.80176222 0.18224177 6962751 -0.03360853 -0.98980784 -0.13838683 0.012856616
2.0834708 0.81345057 0.18952835 7161919 -0.2312417 -0.95553744 -0.18296313 0.05512014
2.4818597 0.8996619 0.18813649 6376780 -0.49566603 -0.67265511 0.54940903 0.11098702
2.4530134 0.91551697 0.18469244 7164756 -0.38898212 -0.24035248 0.88933885 0.13518687
2.4840703 0.91653681 0.18905428 6441292 -0.31265301 -0.61122429 0.72708523 0.15720332
2.5003495 0.91700315 0.18354964 7099223 -0.35156554 -0.151924 0.92375368 0.092543848
2.4862812 0.93341172 0.18997201 6571851 -0.31221431 -0.61165118 0.72691476 0.15737456
2.6109812 0.99504083 0.18424639 7229269 -0.94172007 0.28019312 -0.18615897 0.15005989
2.4161468 -1.6353935 0.19922742 723733 -0.99423301 -0.1060456 -0.015971677 0.20170262
2.4178047 -1.6161784 0.19966242 2493461 -0.83039224 0.36789346 -0.4184534 0.17541099
2.4395199 -1.4467177 0.19028351 3215644 -0.94128829 0.29225039 -0.16901518 0.051412869
2.4590945 -1.4377933 0.19099352 2757405 -0.90148586 0.34686965 -0.25885278 0.047410376
2.4311821 -1.4133164 0.1902031 2428186 -0.51598257 -0.010598746 0.85653359 0.042464506
2.4610608 -1.4187574 0.19180295 3084573 -0.89523745 0.2945213 -0.33437577 0.043383457
2.4335799 -1.3950157 0.19119844 2888211 -0.5907709 0.12027349 0.79782456 0.054513533
2.463027 -1.3997215 0.19261244 3542568 -0.94231248 0.10424367 -0.31808886 0.024510464
2.464993 -1.3806856 0.19342193 3412774 -0.9560318 0.084920973 -0.28069848 0.029518874
2.4359775 -1.3767151 0.19219372 2887441 -0.59704548 0.12133831 0.79297781 0.058285851
2.4669592 -1.3616496 0.19423142 2758168 -0.98554283 0.050721452 -0.16165604 0.038820803
2.4212804 -1.3492527 0.19369498 2822165 -0.83785206 0.086246431 0.53904134 0.067821518
2.4578841 -1.3491477 0.19368532 3151132 -0.96109885 0.11520703 0.25103074 0.069990389
2.4689252 -1.3426138 0.19504091 3545373 -0.96476161 0.22120129 -0.14249602 0.049489621
2.4431701 -1.3218133 0.19517961 3215908 -0.98278004 0.091863289 -0.16032666 0.078040734
2.4708915 -1.3235779 0.1958504 3413275 -0.93269831 0.35493878 -0.063970879 0.05469453
2.4905789 -1.313563 0.19660667 3807257 -0.867006 0.44466725 -0.2248815 0.065950587
2.4284229 -1.2947356 0.19665995 3150102 -0.99978977 0.018367747 0.0091117332 0.081188805
2.492559 -1.2943908 0.19742194 3938342 -0.83035594 0.44111082 -0.34048548 0.065305203
2.4479651 -1.2852122 0.19717023 3412764 -0.99168873 -0.073583357 0.10554178 0.058936935
2.4945393 -1.2752186 0.19823721 4004651 -0.93383509 0.12480226 -0.33522603 0.041966066
2.4331844 -1.2583909 0.19863662 3478041 -0.9292658 -0.089974672 0.35828713 0.087793656
2.4965196 -1.2560464 0.19905248 4463144 -0.97817671 0.025677487 -0.20618199 0.041542169
2.4355652 -1.2402185 0.19962499 3807006 -0.89762545 0.11175723 0.42635554 0.11216044
2.4859586 -1.2490568 0.19030225 4003620 -0.98548561 -0.14840014 0.082435273 0.041620597
2.4984996 -1.2368742 0.19986776 3873317 -0.99311346 0.10179931 -0.057987496 0.047477555
2.4691432 -1.2208046 0.19018036 4200233 -0.9804045 -0.18079309 0.078236386 0.028111346
2.4708138 -1.2014453 0.1906186 4134436 -0.99945199 0.0047865561 0.032754611 0.041020248
2.4724844 -1.182086 0.19105685 4134687 -0.9940275 0.097484037 0.049053997 0.025581084
2.4741547 -1.1627266 0.19149509 4464676 -0.99803257 0.028163977 0.056015845 0.023656743
2.4758253 -1.1433674 0.19193333 4005154 -0.99990463 -0.0053027174 0.012754517 0.021642722
1.6023124 -1.134594 0.19409928 9140346 0.10832603 0.98026645 0.16535763 0.019844349
1.6039194 -1.1223282 0.19476637 8615033 0.10832603 0.98026645 0.16535763 0.019844349
2.4774959 -1.1240081 0.19237158 4397859 -0.99925476 0.036384039 -0.012888268 0.019277135
2.4791663 -1.1046487 0.19280982 4462633 -0.99218518 0.12311474 -0.020282986 0.019478058
2.4679353 -1.0821286 0.19087055 4201504 -0.92317295 -0.21944746 0.31558612 0.053369869
2.4808369 -1.0852894 0.19324806 4856370 -0.99204522 0.11801089 0.043814454 0.011890383
2.4703329 -1.063828 0.19186583 4397097 -0.87712276 -0.040867154 0.47852436 0.082993284
2.4825075 -1.0659301 0.19368631 4987954 -0.99104202 0.082716584 0.10485096 0
2.4727306 -1.0455273 0.19286117 4332334 -0.82137513 0.21204492 0.52950913 0.072358921
2.4841778 -1.0465708 0.19412458 4791596 -0.9909898 0.083515145 0.10471124 0
2.4751282 -1.0272268 0.19385645 4200732 -0.88924623 0.23998231 0.38942233 0.090941608
2.4858484 -1.0272114 0.19456282 4987176 -0.99889308 -0.037074801 0.028949777 0.031805217
2.4801483 -1.0107993 0.19027719 4660784 -0.98616266 0.029919878 -0.16305861 0.052512109
2.4775257 -1.0089262 0.19485179 4464672 -0.85285783 0.25360426 0.45641914 0.11081067
2.487519 -1.0078523 0.19500107 4791847 -0.98011017 -0.19812572 -0.011414468 0.030245746
2.4821005 -0.99189979 0.1910809 4726314 -0.97321308 -0.18069279 -0.14214961 0.041681122
2.4973092 -0.99721009 0.19535974 4135970 -0.97264695 0.22906967 0.038536225 0.06000755
2.470542 -0.98147458 0.19483674 4791594 -0.97588992 -0.21165173 0.053315748 0.015113044
2.4997237 -0.97878128 0.19636205 4461853 -0.98483056 -0.0092590488 -0.17327157 0.066221289
2.4661226 -0.96630502 0.19197252 4267557 -0.98566717 -0.14409024 -0.087740012 0.035838548
2.4721999 -0.96225947 0.1952717 4791845 -0.98577952 -0.16378455 0.037594318 0.035103437
2.4847183 -0.95402426 0.19783768 4594977 -0.95902228 -0.079620421 -0.27191326 0.043914609
2.4680607 -0.94754165 0.19277039 4727091 -0.99965012 0.0018701646 -0.02638419 0.036485758
2.4738581 -0.94304425 0.1957067 5053737 -0.99747568 0.035204228 0.061668426 0.032548394
2.4698393 -0.92915106 0.19643387 4791341 -0.99950445 -0.030758688 -0.0066899247 0.045752659
2.4755161 -0.92382914 0.19614169 5052963 -0.98490584 0.11236914 0.13165754 0.042746007
2.4719367 -0.91001511 0.19436619 5251377 -0.99436826 -0.0026281609 0.10594745 0.025646551
2.4771743 -0.90461403 0.19657665 4987430 -0.97547406 0.1126017 0.18913266 0.031044608
2.4738746 -0.89125174 0.19516405 4857641 -0.98563486 -0.019916717 0.16771208 0.020409958
2.4788322 -0.88539892 0.19701165 5052709 -0.98135161 0.08200077 0.17385317 0.010942996
2.4758127 -0.87248844 0.19596198 4791855 -0.97738487 0.054884356 0.20422171 0.011746747
2.4804904 -0.86618382 0.19744661 5052710 -0.99782711 0.048703577 0.044373889 0.011149949
2.4777505 -0.85372508 0.19675985 4857387 -0.97434604 0.084128231 0.20873953 0.013263972
2.4821484 -0.84696871 0.19788161 4856358 -0.99642926 0.074348085 0.040014636 0.01027398
2.4796886 -0.83496177 0.19755772 4856871 -0.9712081 0.11749058 0.20724586 0.012226964
2.4838066 -0.82775348 0.1983166 4462631 -0.99489033 0.097415872 -0.026521079 0.015837593
2.4816265 -0.81619847 0.19835564 5054770 -0.96477956 0.1540042 0.21326771 0.011252346
2.4854646 -0.80853838 0.19875157 5052197 -0.99183917 0.12674513 -0.013812998 0.016329477
2.4835646 -0.7974351 0.19915351 5054766 -0.98997307 0.079294302 0.11690091 0.02310059
2.4847455 -0.78585184 0.19463275 4658722 -0.95549583 0.29068768 0.050282639 0.044036966
2.4871416 -0.77438998 0.19978648 5118757 -0.99380589 0.060114127 0.093467303 0.015185728
2.5022912 -0.76924127 0.19054279 4660010 -0.92153746 0.36590132 0.1299421 0.10115771
2.5046887 -0.75094062 0.19153807 4791078 -0.98398387 -0.059997458 0.16785714 0.10692672
2.474278 -0.72680479 0.19988042 4723231 -0.99074638 0.10970363 0.079916865 0.027067279
2.4895103 -0.72786313 0.19304398 4529448 -0.95037001 -0.19236909 0.24452209 0.081062742
2.4918911 -0.70969087 0.19403228 4790828 -0.90816116 0.035556111 0.41710809 0.081933431
2.494272 -0.69151849 0.19502065 4203304 -0.89314342 0.16005686 0.42032927 0.069737077
2.5142791 -0.67773813 0.1955193 4528925 -0.97618878 0.010866492 0.21665058 0.04744282
2.4990335 -0.65517372 0.19699731 4330275 -0.96401894 -0.088436186 0.25069243 0.053961057
2.4837544 -0.63286579 0.19846138 4789801 -0.96924329 0.12801966 0.21018669 0.052452687
2.5037949 -0.61882901 0.19897398 4659240 -0.98066205 0.14620115 0.1301046 0.056894649
2.5061758 -0.60065663 0.19996229 4200221 -0.9981184 0.053166863 0.030544611 0.078317448
2.5025823 -0.5710569 0.19037047 4527905 -0.98235464 0.074357383 0.1716108 0.077641755
2.5045202 -0.5522936 0.19116834 4265503 -0.97936213 -0.071401931 0.18908094 0.083210781
2.5064583 -0.53353029 0.19196621 4527648 -0.98477781 -0.089305185 0.14912173 0.066165775
2.5083961 -0.51476693 0.19276413 4593437 -0.99683648 -0.035936922 0.070891492 0.051908568
2.5103343 -0.49600369 0.193562 4724772 -0.99186224 0.025563102 -0.12472303 0.051595669
2.4940069 -0.47409761 0.19443056 4331548 -0.99453437 0.09804406 -0.035899732 0.042213317
2.4987166 -0.46871656 0.19028726 4068382 -0.88870651 -0.054172456 0.45526496 0.041697979
2.4959309 -0.45547059 0.19522265 4199962 -0.99449021 0.098311506 -0.036388669 0.042959511
2.5010808 -0.45067242 0.19126865 4134941 -0.93100119 0.06958425 0.35832217 0.050460391
2.5034449 -0.4326283 0.19224998 3937057 -0.957389 0.26183665 0.12185204 0.044734523
2.5161481 -0.43971375 0.19595566 4396312 -0.99824399 0.058174968 0.011161582 0.046674952
2.5180862 -0.42095041 0.19675353 4001300 -0.98479986 0.16689265 0.048126116 0.054751445
2.5058086 -0.41458419 0.19323137 4002581 -0.93675882 0.32596233 0.12740315 0.051256664
2.5017025 -0.39958954 0.1975989 4001815 -0.99154222 0.12161734 0.045313183 0.05492717
2.5260062 -0.39899608 0.19370678 4329751 -0.96508741 0.24936339 0.080151081 0.051374033
2.5251746 -0.38212377 0.19652224 4066583 -0.99603963 0.021704672 0.086219549 0.054279812
2.5055504 -0.36233547 0.19918308 4066327 -0.97398412 0.22633846 -0.011219949 0.035415661
2.5129006 -0.36045179 0.19617543 3213586 -0.94107145 -0.32509908 0.093247987 0.062328722
2.4984324 -0.34045815 0.19761327 3738908 -0.97503442 -0.19585891 0.10462897 0.1037368
2.5245585 -0.34633386 0.19497809 4459022 -0.99880761 0.047362734 0.011833527 0.03786261
2.5007806 -0.32253474 0.19858804 3804703 -0.95776802 0.13230455 0.25529581 0.084626839
2.5249374 -0.32755545 0.19044605 4263694 -0.99760604 0.05856853 0.036770269 0.040050045
2.5199926 -0.30631942 0.19911948 3937300 -0.97507572 0.13068601 0.17930019 0.061863627
2.5265954 -0.30834034 0.19088101 3937041 -0.9887625 0.10703582 0.10436482 0.04835853
2.5282536 -0.2891252 0.19131601 4198165 -0.98882562 0.0040659029 0.14902151 0.054576039
2.5299115 -0.2699101 0.19175097 3804952 -0.96085048 -0.20484518 0.18656078 0.036013931
2.5315697 -0.25069499 0.19218597 4197660 -0.96760994 -0.16240476 0.19327651 0.041037008
2.5151165 -0.23016262 0.19206581 3672597 -0.99464822 -0.041356377 0.094681211 0.039843012
2.5167627 -0.2110841 0.1924977 3672850 -0.99986124 0.011439031 0.012110695 0.033825792
2.518409 -0.19200557 0.1929296 4328723 -0.99839211 0.0023535287 -0.05663706 0.050912619
2.4953043 -0.17650224 0.19003698 3872537 -0.97980553 0.19984107 0.0066901152 0.086815089
2.5200553 -0.17292705 0.19336146 3672850 -0.9606353 -0.23337682 -0.1507155 0.044650294
2.5156429 -0.15948355 0.19046864 3937308 -0.93300694 0.35898367 0.025076063 0.055783864
2.5217016 -0.15384854 0.19379336 3673101 -0.97932756 -0.06933029 -0.19002883 0.074208379
2.5349548 -0.14217022 0.19094548 3477781 -0.96135676 0.27484566 0.015909733 0.079401933
2.506073 -0.13554734 0.19210635 3803923 -0.99829423 0.024901519 0.052806146 0.050297305
2.5373187 -0.1241261 0.19192687 3741212 -0.97287983 0.16795479 -0.15904744 0.056910928
2.5088797 -0.11846065 0.19134459 3738643 -0.99268961 0.0032875009 0.12065072 0.014768435
2.5249941 -0.11569151 0.19465715 4132369 -0.97589004 0.19563265 0.096780978 0.057666291
2.5396829 -0.10608198 0.1929082 3873065 -0.983486 -0.082352504 -0.1611627 0.073806763
2.508446 -0.096251912 0.19451231 3608082 -0.98068321 0.18519312 0.062960446 0.057649136
2.5107903 -0.099962361 0.19213119 3738643 -0.98114359 0.071830906 0.17943692 0.0081263352
2.5127008 -0.08146406 0.19291785 3738130 -0.97892129 0.095128134 0.1807314 0.0083899535
2.5420468 -0.088037856 0.19388959 3939110 -0.97596991 -0.19816726 -0.09062279 0.068356298
2.5282867 -0.077534452 0.19552091 3674641 -0.99917334 -0.023330243 0.033291601 0.055720799
2.5092926 -0.069731101 0.19584391 4331558 -0.97160053 -0.16589089 -0.16873837 0.071215972
2.5146115 -0.062965758 0.19370446 4067354 -0.97609359 0.11831149 0.18232849 0.0088538872
2.5116239 -0.0519359 0.19681177 4463401 -0.98553872 -0.015449878 -0.16874439 0.074355163
2.529933 -0.058455948 0.1959528 3805202 -0.99366498 -0.11023365 -0.021876223 0.068199083
2.5165222 -0.044467453 0.19449106 4067347 -0.97266299 0.19233006 0.13013783 0.013883171
2.5139554 -0.034140665 0.19777957 4201250 -0.96207952 0.22913426 -0.14798877 0.038896848
2.5315793 -0.03937741 0.1963847 3936022 -0.98428231 -0.14801188 -0.096336775 0.047940761
2.5167084 -0.023226688 0.19575261 3673361 -0.99888647 0.020910272 -0.04229141 0.047441714
2.5344284 -0.016096095 0.19826701 4398883 -0.98176944 0.081679739 0.17163087 0.041894872
2.5166185 -0.0015423307 0.19665629 3738894 -0.96002215 0.15399377 -0.23375942 0.067116037
2.5203433 -0.0074708653 0.19606432 3541778 -0.99203175 0.11228592 -0.057139177 0.034921281
2.5367765 0.0018273494 0.19924179 4334117 -0.97055572 0.14368421 0.19333017 0.053755552
2.522254 0.011027451 0.19685093 3476750 -0.98352098 0.1112882 -0.1424832 0.028697442
2.5365181 0.017858129 0.19768038 3541254 -0.98299223 0.061786342 -0.17294148 0.077280387
2.5241647 0.029525753 0.19763759 3607055 -0.9918887 0.059170298 -0.1124974 0.037993535
2.5381644 0.036936637 0.19811225 3738894 -0.99231529 -0.08542186 -0.089518137 0.092137277
2.5260751 0.048024055 0.19842419 3672597 -0.99555331 -0.011168004 0.093535498 0.026994098
2.521522 0.055283442 0.19794267 3606793 -0.99232578 -0.080368832 -0.093970209 0.09484867
2.5279858 0.066522352 0.19921079 3541262 -0.98762804 0.0043394705 0.15675482 0.015404695
2.5231564 0.074225321 0.19837147 3410443 -0.99172843 0.082190171 -0.098587923 0.087219678
2.5298965 0.085020654 0.1999974 3738906 -0.9721418 0.10740816 0.20833591 0.020334374
2.524791 0.09316726 0.19880027 3344910 -0.97016293 0.18697706 -0.15434855 0.083238371
2.5264256 0.1121092 0.19922906 3475722 -0.9825846 0.14961129 -0.11019979 0.08915811
2.52806 0.13105108 0.19965786 3278860 -0.98192143 0.18725638 0.027666587 0.060493276
2.5310426 0.1455391 0.19068602 4727856 -0.94873482 0.27389961 0.15773799 0.081412651
2.5333741 0.16333419 0.19165382 4728887 -0.92283851 0.19598657 0.33159977 0.076115094
2.553987 0.18280199 0.19209722 5058363 -0.871301 0.10593171 0.47917956 0.06135463
2.5380366 0.19892468 0.19358948 4992570 -0.92072964 -0.074413054 0.38303992 0.089421034
2.5586834 0.21864888 0.19404683 4794678 -0.93909639 -0.24488902 0.2410963 0.078682221
2.5426993 0.23451503 0.19552514 5386305 -0.98158848 -0.17898829 0.066688165 0.078224383
2.5277612 0.25025326 0.1969603 4991547 -0.97883153 -0.15195522 0.13710745 0.10341667
2.5300767 0.26792777 0.19792154 5451074 -0.98284543 -0.10045922 0.15467 0.093077078
2.5323923 0.28560227 0.19888279 5255489 -0.99159747 0.0018168241 0.12934949 0.090523794
2.5467348 0.28970307 0.19055179 4202529 -0.96368593 0.072796717 0.25692436 0.052500155
2.5347078 0.30327678 0.19984409 5322052 -0.99259895 0.11328359 -0.043750882 0.070162117
2.5486455 0.30820137 0.19133839 4003104 -0.93071926 0.2901803 0.22261405 0.074224353
2.56832 0.32928336 0.19204172 4397862 -0.93541276 0.29411584 0.19621147 0.056525398
2.5702438 0.3479104 0.19283381 3808025 -0.96908253 0.20670335 0.13473231 0.074317887
2.5721679 0.36653739 0.1936259 4529463 -0.99168676 -0.0422615 0.1215376 0.074681424
2.5740917 0.38516438 0.19441804 4399910 -0.98210067 0.047357775 0.18230633 0.058467072
2.5760155 0.40379143 0.19521013 4464936 -0.98461396 0.12655766 0.12049305 0.054734521
2.5779395 0.42241842 0.19600222 4530477 -0.99109888 0.05983673 0.11892276 0.052585129
2.5470483 0.44638884 0.19087616 6571087 -0.88011289 0.038790341 0.47317722 0.084305748
2.5798633 0.44104546 0.1967943 4003117 -0.98835766 0.063461453 0.13828157 0.050612427
2.5639303 0.45618773 0.19763133 4858161 -0.99211413 -0.0083390009 0.12506038 0.042787127
2.5493639 0.46406341 0.1918374 6439762 -0.92432547 0.025936084 0.38072285 0.069761187
2.565841 0.47468603 0.19841799 4529713 -0.97886342 -0.013884188 0.20404331 0.033282742
2.5516794 0.48173785 0.19279864 6439252 -0.96547669 -0.0012054547 0.26048678 0.037064567
2.5539949 0.49941242 0.19375995 6044747 -0.97376645 0.063546173 0.2184967 0.034540743
2.5677516 0.49318433 0.19920459 5122099 -0.97940761 0.030520255 0.19957283 0.018045519
2.5388463 0.51320773 0.19520381 6373712 -0.93307877 -0.016821802 0.35927838 0.087795116
2.5696623 0.51168263 0.1999912 5253948 -0.98284698 0.051435489 0.17710508 0.0074300864
2.5411458 0.53076154 0.1961585 5649477 -0.9000231 0.0048642121 0.43581504 0.079381779
2.5434456 0.54831535 0.19711319 5189695 -0.94854712 0.00066635461 0.31663537 0.033229675
2.5620677 0.54836971 0.19018404 8214370 -0.98905337 -0.097806789 -0.11048676 0.059907608
2.5457454 0.56586915 0.19806787 5451846 -0.97090012 -0.033730898 0.23709734 0.056322578
2.5637023 0.56731164 0.19061285 8017504 -0.99781203 -0.0050155814 0.065925419 0.04957157
2.5480452 0.5834229 0.19902256 5451844 -0.96689737 -0.054323271 0.24931607 0.06620691
2.5653369 0.58625358 0.19104165 7689309 -0.99038535 0.02954156 0.13514493 0.029483391
2.5503449 0.60097671 0.19997725 5385281 -0.95706248 -0.016691858 0.28940094 0.070395939
2.5669713 0.60519552 0.19147044 7687759 -0.95462877 0.0079092672 0.2976934 0.033222418
2.5499778 0.61930335 0.19134131 7361108 -0.90473324 -0.037052456 0.42436415 0.042648662
2.5516007 0.63810867 0.19176702 7689309 -0.89809018 0.019746741 0.43936792 0.047827311
2.5718749 0.66202128 0.19275683 7230033 -0.92408019 0.10812547 0.36658514 0.064991646
2.5735095 0.6809631 0.19318563 6770774 -0.94880211 0.17215408 0.264835 0.058402542
2.5751438 0.69990504 0.19361442 6638938 -0.99518979 0.0917245 0.034407921 0.030135516
2.5504727 0.70577455 0.19073403 7558996 -0.98604029 0.031628158 0.16347572 0.022411713
2.5767784 0.71884692 0.19404322 6639192 -0.99663532 0.023157924 -0.07862439 0.030458817
2.5523567 0.72401547 0.19150972 7427161 -0.99330837 0.11449204 -0.015170068 0.032187894
2.5603011 0.7255578 0.1901159 6704464 -0.91005069 0.043500703 0.41220805 0.056664295
2.5295489 0.73287433 0.19202891 7098195 -0.83251125 0.12621506 0.53943932 0.048855193
2.5784128 0.73778886 0.19447201 6901846 -0.96270144 0.050426133 -0.26582542 0.016473893
2.5542407 0.7422564 0.19228542 7559011 -0.97957271 0.20046706 -0.01582092 0.031996299
2.5318191 0.75020188 0.19297126 6574161 -0.91506165 -0.029510798 0.40223286 0.065781698
2.5800474 0.75673074 0.19490081 7625054 -0.9763093 0.074384473 -0.20319249 0.028161408
2.5741785 0.76617861 0.19298324 7361886 -0.98940068 0.14164656 0.031977013 0.069441251
2.5506446 0.77287406 0.19344679 6901331 -0.83720481 0.054864246 0.54413062 0.078514934
2.581682 0.77567273 0.19532962 7427675 -0.99438238 0.055741679 -0.089981362 0.039461214
2.5760758 0.78454816 0.19376442 7361882 -0.99261558 0.055204444 0.10801324 0.085893251
1.8668084 0.79898643 0.1917063 6961451 0.012410152 -0.99888891 -0.045464534 0.0032055962
2.0862041 0.79527098 0.19867377 6304817 0.070697926 -0.98561096 -0.15353486 0.038692266
2.5564113 0.79364693 0.19450389 6704721 -0.82598358 0.065409459 0.55988628 0.11398569
2.5833163 0.79461473 0.19575842 6901596 -0.99986768 0.003412426 -0.015909182 0.044954795
1.8216877 0.80411595 0.19036013 6566693 -0.10102831 -0.9922201 0.072750457 0.011098191
1.8490058 0.8038857 0.19123228 6632745 0.0080021629 -0.9986428 0.051465265 0.015610163
1.9056413 0.80312657 0.19303487 6895919 -0.036489993 -0.99930006 0.0082407407 0.0054241661
1.9349562 0.80256754 0.19396459 7027503 -0.014629469 -0.99981308 -0.012640562 0.0051063765
1.9466712 0.80977964 0.1928592 7356470 0.078940965 -0.9968524 -0.0073242788 0.0070783678
1.9768496 0.80697393 0.19539665 6830886 0.0077360258 -0.99968702 0.023791417 0.0046185055
1.9976746 0.8019008 0.19596422 6961461 -0.015743464 -0.99967533 0.020033369 0.005192915
2.007129 0.80920339 0.19128785 7225660 0.0052990392 -0.99869442 0.050807826 0.076827437
2.0300231 0.80129701 0.19699043 6961451 -0.06351158 -0.99505526 -0.076363772 0.019015674
2.063379 0.80063474 0.1980478 7093549 0.021373324 -0.98748022 -0.15628858 0.039480988
2.5386293 0.8021844 0.19579843 6440782 -0.91036046 0.18370281 0.37080616 0.076771818
2.5436828 0.80915219 0.19544944 6967126 -0.91579449 -0.028442085 0.40063882 0.20880133
2.566205 0.8073566 0.19559836 6900567 -0.94077998 -0.17845052 0.28825089 0.10860576
1.917986 0.81011564 0.19360754 7159087 0.045524053 -0.99895829 0.0031615943 0.0045226691
1.9871222 0.81411737 0.19202119 7093046 0.14493765 -0.9854725 -0.08852762 0.016079277
2.061409 0.81833118 0.19031268 7291455 -0.053285092 -0.98394084 -0.17035609 0.073105015
2.5408993 0.81951195 0.19674078 5583683 -0.90649182 0.14686461 0.39585796 0.056939766
2.5455537 0.82726425 0.19621965 7163735 -0.78928059 0.15922222 0.59302992 0.17075871
2.5678277 0.82616198 0.19602408 7164758 -0.91994715 -0.078477055 0.38410771 0.13270272
2.5694504 0.84496725 0.19644979 7295572 -0.98239118 -0.17873889 0.054405503 0.18897383
2.5763993 0.84843445 0.19679871 5123643 -0.83480769 0.024756962 -0.54998487 0.15457197
2.5836649 0.8580265 0.19688901 6769231 -0.99018681 0.13130759 0.04783804 0.063150629
2.5674288 0.86994231 0.1977151 6900816 -0.98700935 0.1597255 0.017333107 0.063860677
2.5643542 0.87751812 0.19913802 4990777 -0.89147723 -0.4262206 -0.1536375 0.13775028
2.5898545 0.87038225 0.1974736 7030863 -0.83605933 0.030640956 -0.54778272 0.10590419
2.6141758 0.87859774 0.19682327 4926514 -0.91665316 -0.34064037 -0.20907199 0.12911974
2.569313 0.88818324 0.1984908 6966348 -0.99472958 0.056986395 -0.085238598 0.045823682
2.572696 0.8825779 0.19730119 6899793 -0.87371993 0.11711912 -0.47211933 0.097814195
2.5555136 0.8945002 0.19712259 6571598 -0.84051913 0.19822274 -0.50421762 0.088442251
2.5893569 0.91313517 0.19923243 6506828 -0.97281766 -0.039211199 0.22822866 0.046113882
2.5759413 0.92018843 0.1981526 6966607 -0.91979152 0.12053832 -0.37343556 0.068974748
2.5963924 0.94615 0.1991888 6704205 -0.87173355 0.28402236 -0.39926434 0.063428782
2.4087076 -1.6066945 0.20155981 1904137 -0.99039429 -0.12915502 -0.049377963 0.13008833
2.437727 -1.6086004 0.20073941 2231821 -0.94279569 0.33303136 -0.015044899 0.13062902
2.4576743 -1.6007339 0.20182297 2494746 -0.93812597 0.32655522 0.11524481 0.089476228
2.4106457 -1.5879312 0.20235774 2297357 -0.99225795 0.11877668 0.036281187 0.13927251
2.4410679 -1.5698817 0.2016159 2427922 -0.99173808 0.059242807 0.11378037 0.13477944
2.4340286 -1.5424429 0.20475623 3214868 -0.93932837 0.19868749 -0.2796168 0.11578328
2.3969662 -1.5394661 0.20395449 2362647 -0.82107288 0.42060268 0.38591808 0.20536539
2.424437 -1.5393178 0.20140234 2623507 -0.96715266 0.22994447 0.10835748 0.071094453
2.4444091 -1.5311631 0.20249239 2821650 -0.979222 0.12511824 0.15959261 0.025876619
2.4359808 -1.5235432 0.20555994 2755598 -0.94690233 0.27845556 -0.16074373 0.11748733
2.4460795 -1.5118037 0.20293063 2888209 -0.95396549 0.25119412 0.16386394 0.03378262
2.4379327 -1.5046436 0.20636365 2887443 -0.9793551 0.14703749 -0.13872123 0.041374691
2.4477501 -1.4924443 0.20336887 2822680 -0.98812997 0.10196475 0.11490134 0.015016823
2.4398849 -1.4857441 0.2071673 3019281 -0.9695707 0.22060527 -0.10614181 0.036585774
2.467772 -1.4837127 0.20447204 2690842 -0.99715942 0.072980687 -0.018626409 0.036337987
2.4418368 -1.4668444 0.20797101 2953486 -0.96647662 0.2534354 -0.041152183 0.035165366
2.4510911 -1.4537258 0.20424536 2887711 -0.97527885 0.13190481 -0.17729153 0.051525559
2.443789 -1.447945 0.20877466 3084559 -0.97760522 0.20265706 -0.056729112 0.049344514
2.4527617 -1.4343663 0.20468363 2822165 -0.96043372 0.18891296 -0.20464355 0.030831177
2.4457412 -1.4290453 0.20957837 3150615 -0.97450197 0.19764011 -0.10622795 0.04588037
2.4544322 -1.4150071 0.20512187 2954002 -0.94363266 0.29353711 -0.1529489 0.030906331
2.4561026 -1.3956479 0.20556012 3280412 -0.92325157 0.28248397 -0.26040244 0.038679317
2.4761868 -1.3861953 0.20667958 3871264 -0.95349866 0.049005046 -0.29738659 0.041900326
2.4778697 -1.3666917 0.2071211 3217685 -0.97745001 -0.079657458 -0.19556643 0.034367997
2.4611142 -1.33757 0.20687485 3545640 -0.99319416 -0.11208105 -0.031674709 0.026841154
2.4627848 -1.3182106 0.20731309 3807775 -0.99441773 0.070366085 0.078625955 0.037695233
2.4644554 -1.2988514 0.20775133 4070442 -0.94167203 0.33328032 0.046670087 0.037144028
2.4661257 -1.279492 0.20818958 4464179 -0.910146 0.40905127 0.065661348 0.032091726
2.4862845 -1.2691743 0.20932865 4135468 -0.95074403 0.30052391 0.075968035 0.056825783
2.4879675 -1.2496709 0.20977017 4265264 -0.99244928 -0.10008515 0.070904404 0.051182337
2.4379458 -1.2220463 0.20061329 3413779 -0.77171075 0.16509804 0.61417031 0.1027093
2.4711373 -1.2214141 0.20950434 4133928 -0.98695886 -0.15958923 0.021061201 0.026037108
2.5004799 -1.217702 0.20068303 4003882 -0.97015047 0.21797255 -0.10628304 0.048146412
2.4403267 -1.2038738 0.20160165 3609876 -0.90426642 0.31793001 0.28499612 0.07480783
2.4728079 -1.2020549 0.20994258 3806756 -0.9989174 0.046475153 0.0020311999 0.031946395
2.4599531 -1.1937091 0.2021468 3805976 -0.9020865 0.394685 -0.17453855 0.043444872
2.5024602 -1.1985298 0.20149836 3872798 -0.98955154 0.061090022 -0.13059776 0.068057165
2.4623508 -1.1754085 0.20314208 3543580 -0.91166389 0.38780153 -0.13593721 0.045513809
2.5044403 -1.1793576 0.20231363 4069664 -0.94389963 -0.2390615 -0.22782272 0.054777615
2.4820278 -1.1648592 0.20370814 3741464 -0.95187968 0.26811793 -0.14845145 0.048714232
1.6145144 -1.1411222 0.20536563 9074555 0.1083006 0.9802596 0.16541523 0.019836657
2.470753 -1.1443238 0.20314249 4593186 -0.91677451 -0.29783615 -0.26611683 0.053843591
2.4844422 -1.1464303 0.20471039 4134680 -0.97719884 0.13321793 0.16533415 0.034313165
1.6230572 -1.1334136 0.20578173 8680818 0.1083006 0.9802596 0.16541523 0.019836657
2.4868565 -1.1280015 0.20571271 4134430 -0.97416139 0.052909911 0.21956836 0.042631015
2.4548569 -1.1176298 0.20394716 4134688 -0.98086822 0.0011209064 -0.1946698 0.067057192
2.473299 -1.1043653 0.20593658 4200994 -0.99122661 0.010203302 -0.13177875 0.036083952
2.4754739 -1.0857654 0.2068361 4267048 -0.99716651 0.048454694 0.057542253 0.049573466
2.4785612 -1.0687253 0.20635721 4725534 -0.981507 0.08784575 -0.17007963 0.052254468
2.459373 -1.0584948 0.20950827 4594720 -0.84337109 0.07580407 0.53195769 0.065128341
2.4805131 -1.0498258 0.20716092 5054499 -0.99605739 0.037211046 -0.08052966 0.049652558
2.4824653 -1.0309262 0.20796463 4727345 -0.99702668 0.038095627 -0.066982411 0.042038728
2.4844172 -1.0120265 0.20876828 4726825 -0.98473549 -0.0012886375 -0.17405277 0.030323293
2.4863694 -0.99312699 0.20957199 5054766 -0.98201168 -0.06059159 -0.17883456 0.030242184
2.4720609 -0.91135138 0.20028779 4331815 -0.98072463 -0.0165278 0.19469491 0.092233859
2.4919112 -0.89912242 0.20082363 4791847 -0.98889285 -0.0094383415 0.14833005 0.097129487
2.4943087 -0.88082188 0.20181891 4791327 -0.9723025 0.030093146 0.23178065 0.07289274
2.4967062 -0.86252123 0.20281425 4529188 -0.94160032 0.0055224407 0.33668736 0.053723671
2.4815838 -0.83866191 0.20424113 4463652 -0.95688695 -0.12164671 0.26376033 0.042114802
2.4839647 -0.82048953 0.20522943 4332069 -0.98391092 -0.14321393 0.10681325 0.021488201
2.4863455 -0.80231714 0.2062178 4529446 -0.99104458 0.13191572 0.020710617 0.081125274
2.4887264 -0.78414476 0.2072061 4527905 -0.92061812 0.38561323 -0.061357647 0.06800846
2.4911072 -0.76597238 0.20819446 4659481 -0.94158983 0.28333557 -0.18201533 0.091810837
2.4874406 -0.7599085 0.20074931 5117990 -0.99902552 0.039306398 -0.02007422 0.036114868
2.4904387 -0.75089306 0.20005652 4790051 -0.99288827 0.043025289 0.1110034 0.011274113
2.4893785 -0.74114519 0.20154718 4659234 -0.99527973 0.082452461 0.051185206 0.060525443
2.4934876 -0.74779999 0.20918277 4922135 -0.98455942 0.026736282 -0.17299685 0.091154076
2.4913166 -0.72238189 0.2023451 4725287 -0.96721989 0.11028108 -0.2287439 0.024438448
2.4937549 -0.71246284 0.20092648 4789276 -0.98990595 0.13136841 0.053184073 0.039480228
2.4932544 -0.70361859 0.20314297 4593186 -0.97013181 0.1407616 -0.1975615 0.027572248
2.4954131 -0.69324774 0.20136148 4986403 -0.99361175 0.10546812 0.040152565 0.039745785
2.4951925 -0.68485528 0.20394084 4856362 -0.97425765 0.096642196 -0.20367204 0.027116714
2.497071 -0.67403263 0.20179644 5248806 -0.9899469 0.039282396 0.13587512 0.026492167
2.4971304 -0.66609192 0.20473877 4594468 -0.96413499 0.12702876 -0.2330395 0.023697125
2.4987292 -0.65481746 0.20223144 5117722 -0.99285513 0.10610245 0.054599155 0.040575042
2.4990685 -0.64732867 0.20553663 4857900 -0.98290479 -0.014120768 -0.18357244 0.028680053
2.5003872 -0.63560236 0.2026664 5051932 -0.98276782 0.12870166 -0.13267769 0.033248115
2.5010064 -0.62856537 0.2063345 4987430 -0.99882752 0.034529086 -0.033931646 0.048523262
2.5020454 -0.61638719 0.2031014 4985634 -0.98040634 0.19665883 -0.011346921 0.058109511
2.4847469 -0.60569632 0.20711032 5052456 -0.98716676 0.15804444 0.022888213 0.047036469
2.5037034 -0.59717208 0.20353636 4723231 -0.97972572 0.19114172 -0.060019925 0.037705503
2.4866707 -0.58706927 0.2079024 4789025 -0.95630836 0.25768599 -0.13810228 0.043115459
2.4908464 -0.57873338 0.20140544 4200223 -0.98368824 0.018556602 0.17892212 0.099090509
2.5060911 -0.57511616 0.20634979 5052453 -0.99366027 0.1010005 -0.049377564 0.045774121
2.4932103 -0.56068927 0.20238683 4331809 -0.9696511 0.078749016 0.23146376 0.078533471
2.5078888 -0.55612695 0.20696622 4659234 -0.99971443 0.0057722158 0.023191324 0.039339345
2.5133181 -0.54613954 0.20292732 4003093 -0.97221595 0.16288389 0.16812223 0.068861581
2.5086777 -0.53952676 0.20484132 4658714 -0.99650383 0.041654035 0.072423421 0.012451299
2.4979382 -0.52460098 0.20434955 4133927 -0.99226487 0.036922179 0.11852122 0.060040507
2.5103357 -0.52031165 0.20527631 4920092 -0.99700445 0.019575309 0.074826196 0.011076834
2.5003023 -0.50655687 0.20533088 4134428 -0.99291503 -0.021670667 0.116834 0.053782117
2.5119939 -0.50109655 0.20571128 4853270 -0.99630761 0.050073259 0.069741346 0.011067209
2.5026662 -0.48851269 0.20631227 4003094 -0.99172789 0.069524437 0.10789904 0.043994125
2.5136518 -0.48188141 0.20614627 4591895 -0.99850184 0.054424491 0.0056572407 0.018294286
2.5050302 -0.47046858 0.2072936 4069148 -0.96590561 0.03773199 0.25613013 0.032336328
2.51531 -0.46266627 0.20658126 4723996 -0.99293834 0.097751513 -0.067217395 0.041797955
2.5073941 -0.45242447 0.20827499 3805966 -0.9521848 0.015868971 0.30511034 0.020453859
2.516968 -0.44345117 0.20701623 4395033 -0.99962592 0.025449134 -0.010017268 0.044404395
2.5097582 -0.43438035 0.20925632 4002593 -0.97428626 0.088161975 0.20734939 0.038703851
2.5006185 -0.42154849 0.20679066 4330265 -0.9983961 0.021804249 0.052248187 0.030882427
2.5022647 -0.40246999 0.20722255 4722715 -0.9920035 0.12107885 0.035623308 0.031401414
2.5219424 -0.38580579 0.20832118 4590876 -0.9867689 0.16198866 -0.0068486035 0.035017051
2.5236003 -0.36659068 0.20875615 4657171 -0.99841273 -0.0133362 -0.054719001 0.035260648
2.5252583 -0.34737557 0.20919114 4263704 -0.99875414 0.038940638 -0.031206297 0.033472005
2.5088499 -0.3261559 0.2089501 4197141 -0.99099189 0.13055487 -0.029841848 0.033731382
2.527776 -0.32713383 0.20074299 4262940 -0.99449176 0.086126618 -0.059735924 0.03464086
2.511322 -0.30645442 0.20155939 3869714 -0.98589492 -0.1469304 -0.08014223 0.030418614
2.505477 -0.28668785 0.20053765 3345941 -0.98957437 -0.015728129 0.14316136 0.050858982
2.5132461 -0.2878274 0.20235148 4067347 -0.97414827 -0.21027872 -0.082571827 0.023622898
2.5078251 -0.26876444 0.20151243 3607835 -0.98489857 0.0050822496 0.17305793 0.04593651
2.5151699 -0.26920035 0.20314357 4395023 -0.99074107 -0.10791904 -0.082375281 0.030742094
2.5136337 -0.25070718 0.20321143 3672855 -0.9976759 0.038424529 0.056270074 0.038591765
2.5157695 -0.23243195 0.20409489 3869973 -0.99556059 0.038439997 0.085915543 0.04463926
2.5148697 -0.21499415 0.20443681 3804703 -0.9947964 -0.091817491 0.044156287 0.075349465
2.5209417 -0.2133193 0.20551983 3476496 -0.99938363 0.01470828 -0.031875763 0.034176361
2.4991992 -0.19602528 0.2058408 4133917 -0.99857318 -0.030176386 -0.044057403 0.076924779
2.5054157 -0.19365501 0.20629665 3869716 -0.99783218 -0.035861894 -0.055180274 0.039550144
2.5044284 -0.17669341 0.20694593 3934995 -0.99682182 0.058710314 -0.053846076 0.059381407
2.521914 -0.16122386 0.20736119 4329248 -0.93204552 0.36125699 -0.028008878 0.070254065
2.5092371 -0.15665841 0.20786992 3738894 -0.99845201 0.050038438 0.024284571 0.029143423
2.5242622 -0.14330043 0.20833597 4330529 -0.93614721 0.25350565 -0.24364573 0.063036598
2.5111475 -0.13816012 0.20865652 3804683 -0.98341107 0.056509286 0.172364 0.0075566592
2.5266104 -0.12537698 0.2093108 3937051 -0.95735359 0.096938774 -0.27217075 0.052076153
2.5130582 -0.11966183 0.20944312 3870229 -0.96915418 0.09031906 0.22930902 0
2.5209494 0.019244863 0.20068303 4465452 -0.91373211 0.11950877 0.38834435 0.086015262
2.5232806 0.037040096 0.20165083 4923952 -0.92657602 0.17804451 0.331296 0.10472573
2.5256121 0.054835241 0.20261863 4203820 -0.92192191 0.010976439 0.38722041 0.11815418
2.546169 0.07352107 0.20314094 4727858 -0.98646063 -0.15323128 0.058443457 0.094577134
2.5302749 0.090425625 0.20455429 4728883 -0.98692286 -0.11007553 -0.11775718 0.082408577
2.5322065 0.1058699 0.20315307 4202022 -0.9972499 0.011660744 0.073188834 0.044336934
2.5349376 0.12601601 0.20648995 5057587 -0.99729985 0.069631785 -0.023333549 0.06650421
2.5513647 0.1231766 0.20155314 4067095 -0.96210343 0.25972208 0.083075076 0.025791859
2.5296946 0.14999302 0.20008665 3803921 -0.97866029 0.19396007 -0.067849621 0.050969362
2.5364485 0.14216337 0.20490751 4268326 -0.9656648 0.25978839 -0.00123143 0.061996583
2.5565612 0.16178441 0.20557612 4268075 -0.9926731 0.120758 -0.0041944631 0.059655499
2.5394495 0.17751211 0.20393053 3936285 -0.98569149 0.16806479 -0.012908177 0.078606784
2.5496883 0.1704863 0.20113549 3805204 -0.943497 0.32723543 0.052253239 0.046126887
2.5513346 0.18956485 0.20156738 3279379 -0.94849181 0.30914059 0.069248565 0.033686243
2.5602582 0.18106169 0.20898971 4796467 -0.95464045 0.24408768 0.17053671 0.10295045
2.5413601 0.19601041 0.20471713 4068894 -0.98967636 0.12217208 0.074931756 0.086941667
2.5529809 0.20864335 0.20199928 3410194 -0.99207181 0.10842449 0.06354212 0.064159364
2.5609841 0.21631172 0.20551357 4003104 -0.99656886 0.062090222 0.054729357 0.032068316
2.5546274 0.22772181 0.20243114 3344912 -0.99335015 0.10716351 0.042089131 0.054877523
2.5451813 0.23300701 0.20629039 4527656 -0.98978716 0.13478258 0.046422381 0.036698982
2.5562737 0.24680036 0.20286304 3410454 -0.99659216 0.077295996 -0.028799729 0.044685643
2.547092 0.25150526 0.207077 4200231 -0.98782337 0.0023614117 0.15556157 0.058683109
2.55792 0.26587886 0.20329493 3475471 -0.99397874 0.07727845 -0.077680945 0.043783572
2.5667558 0.27219275 0.20788988 4330793 -0.98859435 0.044168871 0.14398043 0.025904337
2.5552397 0.28672966 0.20618854 3805722 -0.99046284 0.12000905 0.067684717 0.03854451
2.5528238 0.30700016 0.20943686 4201251 -0.96206945 0.2190897 0.16254865 0.041948751
2.5612125 0.30403596 0.20415872 3475220 -0.99265134 0.033236079 -0.11635652 0.032426793
2.5370233 0.32095122 0.20080534 5321533 -0.98744303 0.15778445 -0.0077712541 0.05553972
2.5628588 0.32311445 0.20459062 3345164 -0.99117893 0.11464504 -0.066489838 0.031439237
2.5566876 0.34128618 0.201332 5321284 -0.97818834 0.20534867 -0.031298045 0.040596377
2.5645051 0.34219295 0.20502248 3148816 -0.99030274 0.13891332 -0.0018864572 0.044618744
2.5416543 0.35630023 0.20272782 5256259 -0.9919526 0.089162633 0.089889199 0.0803205
2.5661514 0.3612715 0.20545438 3345172 -0.98197109 0.18428409 -0.042097025 0.038530178
2.5439703 0.37397474 0.20368907 5321281 -0.98005301 -0.032390743 0.19607891 0.089801528
2.5677977 0.38035005 0.20588627 3344148 -0.98932064 0.12689373 -0.071712933 0.031104246
2.5462859 0.39164919 0.20465031 5518660 -0.99524933 0.064905725 0.072568268 0.059131972
2.5694439 0.39942855 0.20631817 3410194 -0.99977511 -0.020411905 -0.0057562743 0.035417892
2.5486014 0.40932375 0.20561162 5191996 -0.98906451 0.14110801 0.04289544 0.054940097
2.5710902 0.4185071 0.20675005 3410957 -0.99659443 -0.078104109 0.026444407 0.046242554
