# .PCD v0.7 - Point Cloud Data file format
VERSION 0.7
FIELDS x y z rgb normal_x normal_y normal_z curvature
SIZE 4 4 4 4 4 4 4 4
TYPE F F F U F F F F
COUNT 1 1 1 1 1 1 1 1
WIDTH 506
HEIGHT 1
VIEWPOINT 0 0 0 1 0 0 0
POINTS 506
DATA ascii
0.45567322 -0.055761967 -0.0048630834 12033697 -0.093628496 -0.0069707334 0.99558282 0.0022964478
0.46515235 -0.054534644 -0.0034148793 11967907 -0.12033594 -0.017360188 0.99258143 0.0028981024
0.47861129 -0.053903248 -0.002141878 12099491 -0.14039963 -0.042571366 0.98917931 0.005672764
0.48689142 -0.053914055 -0.0013290197 11901857 -0.12698357 -0.044357449 0.9909125 0.0053732041
0.39836416 -0.045432203 -0.0076829642 11572890 -0.10607201 0.0025895759 0.99435508 0.0051138983
0.41224331 -0.043239605 -0.0089800432 11836067 -0.10423902 -0.0021529999 0.99454993 0.006435208
0.42568627 -0.044779371 -0.0073504746 11836319 -0.12040612 -0.010572825 0.99266845 0.0044867266
0.43656951 -0.045283295 -0.005996041 11901857 -0.097966716 -0.00092440972 0.99518931 0.0015703721
0.44953573 -0.048147887 -0.0055677444 12165032 -0.097508162 -0.00092678145 0.99523437 0.0018335012
0.4501591 -0.040592354 -0.0052334517 12033700 -0.10386649 -0.013917062 0.9944939 0.0019119395
0.46374148 -0.040351644 -0.0030534863 12033446 -0.14165671 -0.024189135 0.98962027 0.0015929415
0.47492296 -0.043071963 -0.0018166527 11902115 -0.14370731 -0.029615991 0.98917699 0.0040348023
0.48663041 -0.04588972 -0.00057995319 11639197 -0.11398154 -0.015426077 0.99336314 0.0048577203
0.40801942 -0.03470644 -0.0079925507 11836069 -0.10787132 -0.0060883686 0.99414629 0.006195873
0.42184532 -0.037710615 -0.0074925721 11705246 -0.14049788 -0.021492181 0.98984772 0.0041403091
0.4300063 -0.030166365 -0.0069279969 11901599 -0.091307737 -0.0027098285 0.99581909 0.0013255647
0.44463524 -0.036916979 -0.0064633191 12033700 -0.10278905 0.001780335 0.99470162 0.0019113283
0.45423189 -0.032986447 -0.0037105482 11901603 -0.11561104 -0.010271671 0.99324143 0.0020741797
0.4656029 -0.034429997 -0.0034148395 11902371 -0.13258159 -0.017383091 0.99101967 0.0019307844
0.41650388 -0.026102781 -0.0077112168 11770784 -0.13605303 -0.01076873 0.99064302 0.0040234872
0.42151794 -0.025320908 -0.0062564015 11770014 -0.10714659 0.0032590032 0.9942379 0.0015394964
0.43380335 -0.025487404 -0.0063683391 11967138 -0.090446919 0.00092789478 0.99590087 0.0017620442
0.44357765 -0.025903601 -0.0050289035 11967907 -0.10607438 0.0055466932 0.99434274 0.0019367945
0.45293957 -0.023438241 -0.0051193982 11902115 -0.12086514 0.00060267793 0.99266881 0.0021154766
0.46656328 -0.022789465 -0.0028998107 12033191 -0.11766514 0.010955974 0.99299294 0.0018716737
0.47219321 -0.020669214 -0.00096866488 11836835 -0.11404061 -0.00019356981 0.99347615 0.002678456
0.41638681 -0.017230496 -0.009280324 11835551 -0.1247572 -0.0095719919 0.99214113 0.0036698647
0.42513186 -0.014234305 -0.0071419105 11704477 -0.10524369 0.019165635 0.9942618 0.00099438499
0.43659103 -0.018854327 -0.0065075755 11967135 -0.095559001 0.00066895038 0.99542356 0.0018580079
0.45864102 -0.016090926 -0.0036592782 11836323 -0.12454903 -0.00023446667 0.99221343 0.0022361502
0.47349247 -0.011812672 -0.0025455505 11836836 -0.10757861 -0.006079182 0.994178 0.0025822164
0.48345298 -0.011954069 -0.00088766217 11573665 -0.086851098 -0.0016051979 0.99622005 0.0016754931
0.41616666 -0.0060439454 -0.008780323 11770271 -0.11484421 0.017990617 0.99322063 0.0010779434
0.43577179 -0.0091275629 -0.0066367984 11836318 -0.10363758 0.009922754 0.99456567 0.0013799747
0.45389298 -0.0008516591 -0.0036901087 11836065 -0.13351257 -0.017849965 0.99088639 0.0020568061
0.46332398 -0.0017491877 -0.00395298 11836068 -0.13179573 -0.00092966482 0.99127644 0.0023349591
0.47429416 -0.0028111525 -0.0018848181 11902113 -0.10228444 0.0015379958 0.99475402 0.0029538721
0.48659471 -0.0036243573 -0.0015890151 11770531 -0.083986253 -0.0022151396 0.99646449 0.0024498566
0.49415439 -0.0050404947 -0.00054571033 11967906 -0.084701069 -0.02353747 0.99612838 0.0015592254
0.44402924 0.0032343958 -0.0055449405 11770783 -0.10380147 -0.0078514544 0.99456704 0.00091436674
0.45666817 0.0052084792 -0.0044968575 11770528 -0.1300323 -0.011840902 0.99143904 0.0024455346
0.47262388 0.0077677388 -0.0020700991 11771040 -0.091300964 0.016905636 0.99567986 0.0027561786
0.4959268 0.005255064 -0.00048416853 11770527 -0.084061056 0.010420583 0.99640614 0.0019941733
0.44725811 0.015874229 -0.0046665124 11901856 -0.10194292 0.00023730891 0.9947902 0.0014089063
0.45776567 0.018510314 -0.0039083213 11638428 -0.11276767 0.00087391958 0.99362105 0.0024391632
0.46553475 0.01951584 -0.0032234788 11769757 -0.10336727 0.031771813 0.99413568 0.0024964151
0.47499064 0.015756696 -0.0014113337 11836064 -0.095104739 0.019731456 0.99527168 0.0024526659
0.48288247 0.019890355 -0.0024412572 11967907 -0.085576154 0.030950839 0.9958508 0.0019829408
0.451729 0.027064091 -0.0045067519 11836321 -0.092256188 0.016013324 0.99560654 0.00086117972
0.46709991 0.027423954 -0.0032963455 11836066 -0.10075734 0.024011428 0.99462128 0.0018834182
0.47522131 0.026682189 -0.0027888417 11770272 -0.10478505 0.022200722 0.99424714 0.0026394355
0.48353776 0.027832763 -0.0020898283 11901857 -0.09849973 0.0068038991 0.99511379 0.002396134
0.49478051 0.02674249 -0.0012304485 11704734 -0.10455301 -0.010993727 0.99445856 0.0013669112
0.40261593 0.033528894 -0.0097292662 11769501 -0.090066493 0.011197872 0.99587286 0.001442627
0.42380488 0.033476003 -0.0063366443 11638429 -0.10927263 -0.014959302 0.99389929 0.0015769704
0.43617991 0.033199031 -0.0059332997 11704222 -0.10938537 -0.0030292005 0.99399483 0.0014491312
0.47446474 0.038169302 -0.0025769174 11704735 -0.1162239 -0.013235766 0.99313486 0.0024714917
0.48342296 0.037566654 -0.0012507588 11836063 -0.119183 -0.01112698 0.99281001 0.0024541859
0.38738173 0.043639824 -0.0088001341 11506065 -0.084419124 -0.02372345 0.99614787 0.0010835604
0.39844465 0.045063302 -0.0098888278 11571607 -0.084109701 -0.035551317 0.99582213 0.0014806211
0.40534118 0.044172905 -0.0093047917 11638426 -0.089484103 -0.018318208 0.99581981 0.0015901141
0.4161979 0.04639408 -0.0091429055 11835040 -0.09078183 -0.0083501553 0.99583578 0.0020048097
0.4273898 0.042093426 -0.0074375272 11703707 -0.10820112 -0.010939893 0.99406886 0.0016875479
0.43731552 0.041350417 -0.0065040216 11704475 -0.10217801 0.010598718 0.99470967 0.0020500438
0.44754729 0.046756603 -0.0049704313 11638429 -0.095155701 0.00045786059 0.9954623 0.0015880415
0.48424131 0.047485188 -0.00081191957 11835808 -0.091912232 -0.016884489 0.99562395 0.0029304444
0.4153555 0.054785781 -0.0085973144 11769244 -0.096150219 -0.021215452 0.99514073 0.0015727564
0.42102319 0.050622806 -0.0073708892 11572636 -0.10267604 0.0035881253 0.99470836 0.0020001295
0.43084547 0.051916771 -0.0067558438 11441050 -0.09962517 -0.0033127032 0.99501956 0.00226536
0.44059783 0.054461867 -0.0049896389 11573400 -0.10127956 -0.014166895 0.99475718 0.002012545
0.46505103 0.053697854 -0.002997895 11638685 -0.11264358 -0.014553314 0.9935289 0.0013131805
0.47715709 0.054145765 -0.0024898201 11704479 -0.12064946 -0.011354592 0.99263024 0.0020436223
0.48487711 0.056923196 -0.0017758906 11704732 -0.074206293 -0.0088449866 0.99720371 0.003452963
0.50719577 0.057931468 -0.0011086911 11967904 -0.084078997 0.024533376 0.99615711 0.0026528814
0.42159188 0.061129339 -0.0067483485 11441047 -0.091480821 -0.031434339 0.99531066 0.0017592
0.43069378 0.060176231 -0.0051559657 11507098 -0.095311262 -0.030795982 0.9949711 0.0016372433
0.44405526 0.063557506 -0.0059417114 11310233 -0.090584435 -0.035073638 0.99527097 0.0013321502
0.45374542 0.06560047 -0.004452467 11441306 -0.092666298 -0.032061394 0.99518085 0.0016073657
0.4833343 0.065954491 -0.001075305 11638940 -0.081525527 -0.016768064 0.99653018 0.0026434083
0.49630222 0.065691642 -0.00026069582 11638177 -0.072752506 -0.0047077388 0.99733889 0.0029950438
0.50693321 0.065936849 -0.00036048889 12099744 -0.097850382 -0.0015573688 0.99519992 0.0026032659
0.4433395 0.076754928 -0.0044547915 11637913 -0.08763954 -0.044445772 0.99516028 0.00093376701
0.45419633 0.07935679 -0.0033777356 11506586 -0.096228927 -0.045372803 0.99432462 0.0015625654
0.4742263 0.077966288 -0.001131624 11507617 -0.099584974 -0.037076894 0.99433804 0.0015073245
0.48935741 0.076119512 -0.00077018142 11573148 -0.078543104 -0.019903699 0.99671203 0.0030071167
0.3804037 0.088644028 -0.0098764896 11374488 -0.092805833 -0.051367551 0.99435836 0.0023506717
0.39365655 0.087637439 -0.0083803982 11111317 -0.085751951 -0.065008715 0.99419338 0.0022400222
0.40226921 0.084095001 -0.0074702799 11308953 -0.091299444 -0.062785164 0.9938423 0.0025427705
0.41628814 0.082879126 -0.0072576776 11375003 -0.097281918 -0.061717737 0.99334145 0.0025257606
0.42362642 0.086692497 -0.0055778995 11309206 -0.0816053 -0.055290859 0.99512988 0.0023101047
0.45431331 0.08963877 -0.0029820204 11441049 -0.095421255 -0.036790349 0.99475694 0.0018480078
0.46762106 0.085566454 -0.0029836744 11441051 -0.08803609 -0.044495519 0.99512303 0.0016493174
0.47396615 0.085859463 -0.00057761371 11572896 -0.089182548 -0.022138018 0.99576926 0.0018239424
0.38198641 0.090534352 -0.0087894052 11374487 -0.092914701 -0.05134749 0.99434924 0.0023305218
0.39261216 0.09325628 -0.0087697506 11176593 -0.094440408 -0.051686261 0.99418789 0.0028960495
0.40162477 0.094034657 -0.0068724453 11177366 -0.086363286 -0.072241157 0.99364114 0.0027647936
0.42024606 0.095459528 -0.0069720298 11440282 -0.076951891 -0.051073611 0.99572587 0.0026993949
0.43790171 0.09146896 -0.0045291781 11177879 -0.096206695 -0.044191819 0.99437994 0.0014085241
0.44269052 0.090762146 -0.0029320419 11441052 -0.088860638 -0.042235605 0.99514824 0.0011293932
0.45586517 0.098773427 -0.0021359921 11309721 -0.087399423 -0.033039376 0.99562538 0.0017448528
0.46700779 0.097437404 -0.0017060339 11309977 -0.094625473 -0.031918395 0.99500114 0.0015076194
0.47361478 0.095324993 -0.00071485341 11572636 -0.081042618 -0.039013632 0.99594688 0.0021410829
0.49272615 0.094701201 -0.000764817 11571866 -0.0870004 -0.035783656 0.99556541 0.0021574649
0.39566743 0.10132474 -0.0082837939 11046290 -0.095481396 -0.041170664 0.99457949 0.0026531422
0.40465948 0.10214258 -0.005648762 11308950 -0.091132224 -0.059606358 0.99405336 0.0031354111
0.41359517 0.10485204 -0.0045043975 11177877 -0.078865588 -0.041862987 0.99600589 0.0027195162
0.4236083 0.10425215 -0.0053412169 11112085 -0.065764524 -0.044148777 0.99685794 0.0028823747
0.43537101 0.10161788 -0.0039688647 11112087 -0.081730008 -0.035532691 0.99602091 0.0026187405
0.4445098 0.1091674 -0.0022682101 11177880 -0.084301859 -0.026927166 0.99607641 0.001452991
0.46889362 0.10926288 -0.0016127825 11309722 -0.084908523 -0.039790038 0.99559397 0.0019590419
0.47923324 0.10828011 -7.7486038e-05 11441053 -0.10002425 -0.055724435 0.99342334 0.0022992434
0.49291366 0.10253615 -0.00021396577 11441051 -0.05844292 -0.031315636 0.99779952 0.0027738477
0.40794039 0.1150381 -0.0063147545 11045526 -0.092348218 -0.023561098 0.99544799 0.0027335596
0.41523281 0.11260358 -0.005332239 11177106 -0.073869325 -0.028459793 0.99686176 0.0028598029
0.4345116 0.11543334 -0.0040779933 11178136 -0.068003401 -0.034434516 0.99709064 0.0032724268
0.4450525 0.11490355 -0.0030530617 11046550 -0.085800551 -0.027047794 0.99594516 0.0015635914
0.45478618 0.11255936 -0.0029476434 11243673 -0.094778448 -0.02058113 0.99528569 0.0014158108
0.46025994 0.11782508 -0.0020305067 11243414 -0.09994027 -0.029127542 0.99456704 0.0013922869
0.39249119 0.12446611 -0.0080721974 10782862 -0.12087974 -0.00040945783 0.99266708 0.0016047127
0.40581852 0.12585336 -0.0060729086 11046032 -0.12130749 -0.0062670968 0.9925952 0.0022445049
0.42407846 0.12380201 -0.0045277551 10913936 -0.065318123 -0.018975733 0.99768406 0.0030203625
0.44575599 0.12807098 -0.0027940944 11046293 -0.080135256 -0.033687521 0.99621457 0.0018395033
0.38851446 0.134248 -0.0085998178 10585736 -0.13384518 0.016725808 0.99086118 0.0015929504
0.41392082 0.13322397 -0.00539276 10848911 -0.11683715 -0.0028512257 0.99314702 0.0012312112
0.4249841 0.13477971 -0.0033856779 10782864 -0.092311606 -0.017313043 0.9955796 0.0022299939
0.43675062 0.13222668 -0.0028384924 10848914 -0.093210518 -0.028162118 0.99524808 0.0024613275
0.4494268 0.13959956 -0.002125755 11046293 -0.096313119 -0.042573027 0.9944402 0.002155548
0.45870027 0.1384365 -0.0010035634 10849169 -0.12611502 -0.038551562 0.99126625 0.0016962527
0.46126854 0.13005744 -0.0014910847 11046292 -0.11165677 -0.057755217 0.99206704 0.0019432185
0.41904873 0.14934635 -0.0054701567 10586254 -0.097107828 -0.014214441 0.99517238 0.0022721083
0.422068 0.14276621 -0.0047429502 10717327 -0.091674417 -0.015648408 0.99566609 0.0022530444
0.43885258 0.1454764 -0.0029009059 10586253 -0.098159261 -0.016580893 0.99503261 0.0021896116
0.45991197 0.14862199 -0.00031070411 10585741 -0.10956037 -0.025636926 0.99364948 0.00209089
0.42547253 0.15520345 -0.0044887364 10519942 -0.10664881 -0.0096817687 0.99424964 0.002004175
0.43055677 0.15394323 -0.0028316379 10520460 -0.10937249 -0.010437205 0.99394608 0.0018715863
0.44509783 0.15389031 -0.0017543957 10455180 -0.11970754 -0.035427403 0.99217689 0.001628296
0.45422703 0.16276486 -0.00047284365 10520459 -0.10837752 -0.022933513 0.99384528 0.0014658195
1.0227591 0.3999846 -0.0074584112 10848659 -0.54523432 0.22385223 0.80784267 0.025065618
1.0214717 0.4113611 -0.0069404468 10651536 -0.54567587 0.22422402 0.80744135 0.024898602
1.033738 0.41169718 -0.00045706332 10783378 -0.54578644 0.2242206 0.80736756 0.024824223
1.052547 0.43214786 -0.0022544935 10716300 -0.54372561 0.20825228 0.8130151 0.026710797
1.0526955 0.44037953 -0.0020264462 10716300 -0.54322124 0.20822904 0.81335807 0.026954085
0.64528733 -0.47524866 0.0084280744 12033706 -0.092706993 0.033555634 0.99512786 0.0021868707
0.66457319 -0.4792147 0.0087406486 12166063 -0.079143286 0.026557088 0.99650949 0.0021578269
0.61861569 -0.46424335 0.0055311024 11705253 -0.084338546 0.035466924 0.9958058 0.0014510147
0.63459808 -0.46519262 0.0064634904 11968680 -0.095864177 0.057221241 0.99374837 0.0015118896
0.64719409 -0.46097654 0.0088663995 11968935 -0.090186864 0.043563858 0.99497169 0.0024375855
0.59595525 -0.45144615 0.002351284 11771046 -0.11626847 0.00094686437 0.99321735 0.0015071937
0.60379934 -0.45300975 0.0051959306 11770791 -0.10511684 0.022860277 0.99419713 0.0014537082
0.61879271 -0.45623654 0.006021291 11705765 -0.080193229 0.051070701 0.99547017 0.0017622466
0.65085995 -0.45189509 0.0084957033 12165544 -0.11712387 0.046128344 0.99204546 0.0017041917
0.59519953 -0.44311863 0.0031491071 11836840 -0.11831534 -0.0058418401 0.99295896 0.0017989661
0.60855466 -0.44797722 0.0041628182 11836585 -0.086149365 0.022947364 0.99601799 0.0025977159
0.61489129 -0.44612312 0.0051493049 11902117 -0.065527171 0.033180103 0.99729902 0.0023596748
0.62400359 -0.44582427 0.0052585304 12033187 -0.065679818 0.040766165 0.99700767 0.0022834525
0.63566732 -0.44929442 0.0072330683 12099241 -0.094217926 0.0570448 0.99391592 0.0014381852
0.65499794 -0.44298485 0.0079886615 12297128 -0.12932356 0.011350267 0.99153751 0.0030106553
0.67077416 -0.44540942 0.009360224 12559534 -0.12756613 0.00098707899 0.99182957 0.0020409878
0.57228661 -0.43031526 0.00074499846 11507875 -0.087437667 0.033978943 0.99559033 0.0017966441
0.58627731 -0.43569911 0.0011568019 11639204 -0.11866432 0.0069524636 0.99291009 0.0020966067
0.59602189 -0.43315074 0.0035901517 11903143 -0.12551728 0.006316863 0.99207139 0.0020679845
0.6105212 -0.43583158 0.0044211447 11968163 -0.065342873 0.014066041 0.99776375 0.0032440214
0.6285516 -0.43758535 0.0045355558 12099239 -0.070066869 0.018187091 0.99737656 0.0030180332
0.63437605 -0.43648729 0.0057179332 11902884 -0.086634919 0.021924715 0.99599886 0.0029433353
0.64157683 -0.43055522 0.0068710744 12165798 -0.13375208 0.009456899 0.99096978 0.0025504292
0.65821511 -0.43345168 0.0077666938 12493991 -0.13284488 -0.01840057 0.99096608 0.002591958
0.55967021 -0.42067429 0.00040532649 11639464 -0.088558376 0.012048915 0.99599808 0.0011289351
0.57399267 -0.4212327 0.00084622204 11901861 -0.1056454 0.014194718 0.99430251 0.0020662644
0.58744317 -0.42350709 0.0016473383 11771557 -0.1241166 0.016387643 0.99213231 0.0020444102
0.59750807 -0.42096728 0.0039860755 11968421 -0.12690341 0.018359162 0.99174523 0.002126358
0.60168457 -0.42863816 0.0022154301 11968421 -0.13487506 0.012045193 0.99078941 0.0019138594
0.61089921 -0.42540509 0.0050219819 12033957 -0.056604899 -0.0021854946 0.99839431 0.0025379634
0.63193846 -0.4258382 0.0043756142 12165286 -0.081694677 -0.006024946 0.99663919 0.0036778406
0.65631187 -0.42116743 0.0090827346 12297129 -0.15494302 -0.021430075 0.98769099 0.001829101
0.58118618 -0.4142518 0.0008007437 11705508 -0.10034232 0.028629072 0.99454099 0.002408375
0.59568614 -0.41240749 0.0025216192 12034215 -0.13243033 0.019624608 0.99099803 0.0019971468
0.61358207 -0.4162665 0.0048681796 12230306 -0.072364151 -0.0051925629 0.99736476 0.0033349493
0.63478065 -0.41624257 0.0060568801 12296870 -0.092288725 -0.028452899 0.99532568 0.0034819581
0.6431058 -0.41202289 0.0076910257 12362916 -0.1560941 -0.034416758 0.98714244 0.0027857707
0.65860128 -0.41109475 0.0091421306 12560554 -0.15435246 -0.011997804 0.98794305 0.0016960603
0.58015496 -0.40452108 8.2537532e-05 11968165 -0.10816595 0.019955602 0.9939326 0.0017289765
0.59452134 -0.40166536 0.00099983811 12230567 -0.13141632 0.033987086 0.99074447 0.0018442018
0.60447007 -0.40653545 0.002907142 12296872 -0.15078233 0.032154758 0.98804396 0.001715036
0.61488432 -0.40632871 0.0051683336 12230566 -0.085073769 0.0041234121 0.99636614 0.0029937101
0.6339125 -0.40777242 0.0050389767 12231846 -0.097453058 -0.036827676 0.99455851 0.0025922449
0.64633328 -0.40816286 0.00706774 12362916 -0.15465285 -0.019252395 0.98778129 0.0023640089
0.65278035 -0.40010905 0.0077080429 12428200 -0.13344187 -0.013095863 0.99097019 0.002001236
0.57892686 -0.39621529 0.0010512471 12098978 -0.081273168 0.017721273 0.99653435 0.0012511852
0.58207351 -0.39286312 0.0002977252 12099239 -0.099590302 -0.0062362701 0.99500906 0.0013049435
0.59534001 -0.39174303 0.0014388412 11968419 -0.12914605 0.011087247 0.99156362 0.0015881952
0.60483837 -0.39624202 0.003505677 12362661 -0.14374623 0.017768484 0.9894551 0.0019047322
0.61618739 -0.39637947 0.0054690242 12296868 -0.11566597 -0.019816034 0.99309057 0.0030963547
0.62785083 -0.39919385 0.0073216856 12232100 -0.08814767 -0.039386399 0.99532849 0.0018329595
0.63477623 -0.39730388 0.0055021644 12428456 -0.093252234 -0.037848424 0.99492288 0.0021743756
0.58267623 -0.38555789 0.00062093139 12099752 -0.093887359 -0.0045395419 0.99557251 0.0014495277
0.59983957 -0.38371405 0.00062035024 11968674 -0.12772377 -0.0021862013 0.99180734 0.0018082663
0.60612929 -0.38642532 0.0037968755 12231336 -0.14374381 0.0052045584 0.98960125 0.0014468457
0.61841875 -0.38686958 0.0054711998 12231333 -0.13874502 -0.014342709 0.99022424 0.0024371501
0.63263637 -0.38807613 0.0067260861 12494248 -0.079400264 -0.024810139 0.99653399 0.0013619039
0.64786881 -0.38955089 0.0078912079 12428199 -0.12717982 -0.020250963 0.99167299 0.0017537394
0.65108055 -0.38000497 0.0076518655 12558759 -0.13174433 -0.0090726912 0.99124229 0.0013056119
0.58347982 -0.37581763 0.0010519028 12165797 -0.10075156 -0.02436622 0.99461323 0.0019037157
0.59585106 -0.37392172 0.0025207698 11837089 -0.1141656 -0.012231935 0.99338645 0.0020667173
0.60926962 -0.37750888 0.0034757555 12165538 -0.14822452 0.0022297536 0.98895121 0.0014573437
0.61833477 -0.37619692 0.0062224567 12362919 -0.1333371 0.0030710998 0.99106604 0.0023423277
0.63163507 -0.37676969 0.0077700913 12625577 -0.097516805 0.0024987385 0.99523079 0.0017406263
0.58417815 -0.36348885 0.001697585 12362407 -0.085716128 -0.03181468 0.99581158 0.0020037871
0.59877038 -0.36760601 0.002066642 12296869 -0.12072239 -0.018387595 0.99251604 0.0028051275
0.61293387 -0.36612791 0.0031682849 12296867 -0.15196377 -0.0039061457 0.98837835 0.002832117
0.6214987 -0.36707318 0.0059284717 12362407 -0.13095874 0.0052813292 0.99137378 0.0024258553
0.6352886 -0.36765102 0.0073579103 12691115 -0.095795348 -0.012344141 0.99532455 0.0017361734
0.65055841 -0.36870521 0.008548826 12493992 -0.11594522 -0.00031702593 0.99325562 0.0008687271
0.5742749 -0.35159278 0.0005889833 12296360 -0.12284988 -0.0057079121 0.99240893 0.0019410306
0.58627534 -0.35253769 0.0035240948 12428199 -0.10314772 -0.017158877 0.99451804 0.0023764079
0.601592 -0.35084617 0.0023680329 12231847 -0.098290354 -0.01755596 0.99500299 0.0038770721
0.61253422 -0.35542837 0.0040233433 12362662 -0.13213482 0.0062643364 0.99121195 0.0035008702
0.62141347 -0.35641572 0.0066790879 12362662 -0.13928571 0.0031486303 0.99024725 0.0027595307
0.63988131 -0.3588697 0.0066589266 12822445 -0.093920268 -0.0066593294 0.99555749 0.0013026852
0.65284175 -0.35865834 0.0085963309 12691114 -0.12173766 -0.0024237335 0.99255943 0.0010474442
0.5746069 -0.34178561 0.0011768192 12231077 -0.13015094 -0.00011987239 0.99149418 0.0016833695
0.58629316 -0.34171912 0.0025605708 12165540 -0.11062017 -0.015796565 0.99373722 0.0036691863
0.60405922 -0.34419745 0.002075322 12428712 -0.10392801 -0.008091758 0.9945519 0.0042835325
0.61037707 -0.34659824 0.0052727759 12428711 -0.11355844 -0.018659119 0.99335611 0.0043149078
0.62086326 -0.34555 0.0075784326 12559785 -0.13526517 -0.01661212 0.9906702 0.0028871901
0.64074755 -0.34837085 0.0071234405 12626091 -0.10629499 -0.0040313639 0.99432653 0.0014490881
0.6542871 -0.34407836 0.009175241 12823217 -0.12614816 -0.0025565487 0.99200815 0.0010312075
0.57907838 -0.33384725 0.00029680133 12230824 -0.11704265 0.0059274687 0.99310923 0.0025576001
0.58709615 -0.33198643 0.0029911995 12296614 -0.10088524 -0.0056816079 0.99488187 0.003456441
0.60627443 -0.33478838 0.0020514876 12428456 -0.11101246 -0.022759236 0.99355847 0.0039830361
0.61547124 -0.33440262 0.0045958236 12493993 -0.12573966 -0.021007571 0.99184084 0.0042863311
0.62589961 -0.33711144 0.0066960156 12493993 -0.12013397 -0.0014793798 0.99275661 0.0033459268
0.64161378 -0.33787203 0.0075879544 12625835 -0.10471663 0.0052735694 0.99448812 0.0019627956
0.58079439 -0.32461241 0.00039762259 12296868 -0.13366878 0.0057166629 0.99100965 0.0014160924
0.59461087 -0.32360995 0.0038252622 12428199 -0.11241648 -0.01588748 0.99353421 0.0024712151
0.61617839 -0.32291791 0.005175516 12559528 -0.11831604 -0.01464402 0.99286807 0.0039041711
0.62674862 -0.32682118 0.0071513057 12626089 -0.10983789 0.0062102862 0.99393016 0.0032789768
0.64435303 -0.32811245 0.0074760318 12757419 -0.11231777 -0.014901366 0.99356067 0.001819422
0.58159143 -0.31495178 0.00082504749 12296613 -0.13712135 0.0094522499 0.99050915 0.0017371171
0.59650409 -0.31551433 0.0031505376 12427944 -0.10541081 -0.0066624447 0.99440646 0.0019193736
0.61866969 -0.31603885 0.0049073994 12822184 -0.10459369 0.0044428445 0.99450517 0.0031578934
0.62785149 -0.31929946 0.0073445588 12626088 -0.10733587 0.01334573 0.99413329 0.0031873779
0.63388652 -0.31629133 0.005803287 12560042 -0.11500183 0.011860307 0.99329448 0.0025122876
0.64709747 -0.31829226 0.0073667616 12823473 -0.10631377 0.0010745972 0.99433208 0.0020186503
0.5807997 -0.30224225 0.00071385503 12230565 -0.10774842 0.036403716 0.9935115 0.0025226804
0.59249038 -0.30139339 0.0034429133 12230566 -0.14993373 0.034176063 0.98810524 0.0028175842
0.60226262 -0.30491289 0.0036260933 12428459 -0.13017341 0.033067208 0.99093974 0.0023789878
0.62376344 -0.30862847 0.0065903515 12560044 -0.090465531 0.0029682107 0.99589521 0.0025580982
0.63286996 -0.30523247 0.0068507195 12561073 -0.093153983 -0.0034535006 0.99564576 0.0026708981
0.64702982 -0.30739149 0.0081209242 12691886 -0.12318183 -0.0037717479 0.99237692 0.0024455311
0.5940246 -0.29439318 0.0034520328 12494507 -0.14289248 -0.00018200278 0.98973823 0.0036908987
0.60958153 -0.29470459 0.0038249791 12560814 -0.10350093 -0.0046828724 0.99461842 0.0029138771
0.62200564 -0.29892269 0.0050921887 12560304 -0.12327567 0.0071280003 0.99234688 0.002779607
0.6363228 -0.29845247 0.0063135028 12626349 -0.10729432 -0.031150725 0.99373919 0.0029889047
0.64659667 -0.295059 0.0090743974 12561073 -0.11653318 -0.0236296 0.99290568 0.0022461293
0.54556054 -0.2845386 0.00014312565 10654365 -0.15206495 -0.033699237 0.98779589 0.002843125
0.56073827 -0.28046235 0.00013123453 14072754 -0.082995176 -0.05537194 0.99501044 0.0047058286
0.58742511 -0.28471991 0.001085341 6306373 -0.11148223 -0.04656167 0.99267507 0.0040653571
0.60134113 -0.28688246 0.0016800165 10454403 -0.1409387 -0.045205571 0.98898572 0.0040311525
0.61465102 -0.28732967 0.0054471046 11902629 -0.10591298 -0.051435426 0.99304426 0.0029808767
0.62305707 -0.28617844 0.0056560487 10192537 -0.12590772 -0.05635719 0.99043989 0.0035244788
0.63811809 -0.28838155 0.0064800233 11047573 -0.12110963 -0.048603918 0.99144852 0.0027974518
0.64779103 -0.28058323 0.0097148716 10518145 -0.1262874 -0.060771681 0.99013042 0.0014278474
0.56120098 -0.27102178 0.00065632164 12559793 -0.089701019 -0.056886345 0.99434286 0.0042621382
0.58193642 -0.27393791 0.0015957057 12823216 -0.11152957 -0.084575571 0.99015564 0.0034216733
0.59610718 -0.27494943 0.0041620135 12692401 -0.15121678 -0.08655189 0.9847042 0.0028130042
0.60703152 -0.27328989 0.006092906 12757936 -0.12816571 -0.061364502 0.98985249 0.0020986681
0.6227513 -0.27822584 0.0062941909 12954285 -0.12662557 -0.084806174 0.98831874 0.0021107437
0.63427687 -0.2764903 0.0084014609 13941692 -0.10803997 -0.059410132 0.99236977 0.0019853306
0.57515371 -0.26343948 0.0015233308 12494508 -0.096873879 -0.068600543 0.99292976 0.002824995
0.58364993 -0.26109147 0.0039775968 12757166 -0.12207633 -0.069072828 0.99011427 0.0038010967
0.59738237 -0.26529145 0.0044390261 12822963 -0.14305072 -0.079031169 0.98655486 0.0034441859
0.60738492 -0.26319396 0.0066863149 12954800 -0.11475396 -0.05769407 0.99171716 0.0020194126
0.6203081 -0.26703334 0.0077912509 12823992 -0.1209887 -0.043248642 0.99171132 0.0016168799
0.63513058 -0.26614314 0.0088592768 13284027 -0.1451291 -0.064285025 0.98732215 0.0021615892
0.65236139 -0.26035124 0.0097943991 13087160 -0.10314527 -0.054228093 0.99318701 0.0021760978
0.56216329 -0.25456518 0.0015186593 12625838 -0.12256948 -0.021755598 0.99222142 0.0018300754
0.5764026 -0.25406927 0.0017804056 12494507 -0.11646114 -0.018066516 0.99303091 0.0023685128
0.58444357 -0.25147256 0.0044031739 12757419 -0.11972305 -0.028177544 0.99240744 0.0025045567
0.59772569 -0.25533235 0.0050299764 12823221 -0.13172147 -0.02372082 0.99100292 0.0018793786
0.61007893 -0.25379539 0.0065152943 12889525 -0.10151488 -0.012419626 0.99475652 0.0020246799
0.6216141 -0.25703454 0.0080904961 12757939 -0.11751485 -0.019508187 0.99287951 0.0016444634
0.63598233 -0.25581875 0.0093160868 13087160 -0.14473847 -0.020734653 0.98925269 0.0032285412
0.55455595 -0.24050818 0.00022485852 12625836 -0.11585833 -0.017391009 0.99311346 0.0015691748
0.56401002 -0.24080719 0.0018857718 12822444 -0.11332722 -0.02415942 0.99326396 0.0020088875
0.57625878 -0.24427921 0.0025285631 12560300 -0.11963502 -0.013141354 0.99273098 0.0031944506
0.58876598 -0.24533962 0.0034433156 12691115 -0.13562924 -0.0071149245 0.99073416 0.0026021923
0.59338021 -0.24287778 0.004709743 12691886 -0.12263285 -0.0042092996 0.9924432 0.0027647084
0.61230814 -0.24421561 0.0064989924 12626864 -0.1180343 -0.025323426 0.99268663 0.0027821837
0.62386066 -0.24729246 0.0080921873 12889269 -0.12065025 -0.017215595 0.99254584 0.0019671477
0.63567871 -0.24780877 0.0099495351 13087417 -0.13728246 -0.023566063 0.99025166 0.0029909024
0.56895453 -0.23263508 0.0007975772 12691118 -0.097411439 -0.035466366 0.99461204 0.0018115316
0.57425231 -0.23399891 0.0039283931 12757168 -0.10342553 -0.023826607 0.99435186 0.0030634489
0.5936172 -0.23422369 0.0052465424 12889009 -0.11788428 -0.017054554 0.99288088 0.0028620206
0.61125553 -0.23372023 0.0075502247 12692145 -0.11923224 -0.031962033 0.99235183 0.0033562926
0.62987792 -0.2384824 0.0069076121 12954547 -0.12666376 -0.017642299 0.9917888 0.0026680494
0.54495382 -0.22155428 0.00012609363 12428457 -0.096755743 -0.036678527 0.99463212 0.00089505443
0.55396318 -0.22857529 0.0013017803 12625837 -0.11593246 -0.03685569 0.99257314 0.0015679692
0.56434733 -0.22264914 0.0014382005 12756653 -0.10868895 -0.042534195 0.99316543 0.0020463658
0.57569402 -0.22229223 0.0042888522 12822191 -0.10706931 -0.053175047 0.99282861 0.0029618684
0.59196526 -0.22390912 0.0039297938 12822961 -0.12513766 -0.043792706 0.99117243 0.0027557993
0.60015345 -0.22590673 0.0063319057 12889522 -0.12409605 -0.048848122 0.99106711 0.0026686466
0.61442894 -0.22432458 0.0072323531 12822960 -0.10782612 -0.041260965 0.99331319 0.003275095
0.62270808 -0.22628702 0.0098803043 12888497 -0.11532712 -0.038706619 0.99257314 0.0030058145
0.54511708 -0.210043 0.00091587007 12492970 -0.11275616 -0.034607865 0.99301982 0.0011828878
0.5582062 -0.21442671 0.00085736811 12690859 -0.11480273 -0.049708344 0.99214387 0.0018663713
0.56585467 -0.21269965 0.0032904595 12625068 -0.11508338 -0.048479319 0.99217212 0.0019972934
0.57760304 -0.21068633 0.0044873655 12691631 -0.117037 -0.057347909 0.99147046 0.0021424156
0.60143173 -0.21621084 0.0066105723 13020851 -0.13139315 -0.046508737 0.99023879 0.0015553732
0.61289996 -0.21378835 0.0084321201 12757169 -0.11805674 -0.047371347 0.99187636 0.002158893
0.6256932 -0.21925187 0.0094759464 12954548 -0.10984352 -0.039046831 0.99318165 0.0029929182
0.63083422 -0.21523289 0.0082225353 13020341 -0.11304381 -0.029107161 0.99316359 0.0034632322
0.55948597 -0.20178185 0.0013344884 12625836 -0.12392023 -0.032434471 0.99176198 0.0011966389
0.56476039 -0.20295949 0.0043657571 12494509 -0.12261388 -0.040214423 0.99163938 0.001167255
0.57978809 -0.20150244 0.0044212043 12756914 -0.12179285 -0.056755431 0.99093157 0.0024443886
0.58934873 -0.20358394 0.0062141865 12691886 -0.11123577 -0.068685219 0.99141765 0.0022837762
0.60083199 -0.20608711 0.0075093955 13020342 -0.12760641 -0.075367667 0.98895723 0.0020830992
0.61325079 -0.20372275 0.0090242028 13020083 -0.07701245 -0.065007612 0.99490863 0.0030225331
0.62936592 -0.20971282 0.009039253 12955316 -0.1026634 -0.043269362 0.99377465 0.0029002854
0.54635757 -0.19882184 0.0013001561 12494251 -0.11723423 -0.035091542 0.99248409 0.0011169146
0.55792224 -0.1920601 0.0025880337 12560558 -0.13306743 -0.045567751 0.9900589 0.0017138512
0.56739306 -0.19405359 0.0041154474 12560560 -0.13239372 -0.053952839 0.98972774 0.0018884907
0.58104008 -0.19209431 0.0046799779 12756909 -0.13082206 -0.065867819 0.98921537 0.0032766857
0.59202057 -0.19432738 0.0060081482 12822962 -0.12074039 -0.064312257 0.99059868 0.0024433932
0.60211056 -0.19638744 0.0077882707 13151924 -0.1326499 -0.048663981 0.98996758 0.0027009749
0.61407256 -0.19376248 0.0094648898 12889012 -0.092676014 -0.057700764 0.99402303 0.0037909618
0.54544878 -0.18446174 0.0006826669 12494251 -0.12934427 -0.05002882 0.99033689 0.00079462875
0.55824929 -0.18044904 0.0033213347 12560560 -0.14545731 -0.062260035 0.98740363 0.00187085
0.57901394 -0.18205296 0.0060692281 12691628 -0.13245091 -0.070866801 0.98865294 0.0031358385
0.59584939 -0.18401605 0.0080781877 12889010 -0.11880527 -0.05613282 0.99132961 0.0029088864
0.61678571 -0.18413255 0.009304069 13086901 -0.077717721 -0.040322751 0.99615967 0.004220847
0.63294339 -0.18966851 0.0093536228 13087419 -0.11277121 -0.057408787 0.99196112 0.0039500268
0.54555315 -0.17189498 0.0019759536 12625836 -0.1114977 -0.069273882 0.99134731 0.00085105834
0.57192332 -0.17437379 0.0056632459 12823218 -0.1312013 -0.068175182 0.98900872 0.002949801
0.59314507 -0.17491652 0.0070208907 12691890 -0.10701966 -0.049430847 0.99302739 0.0034072762
0.60184163 -0.17645627 0.0092713535 12889781 -0.1163049 -0.044081874 0.99223483 0.0030323768
0.52798629 -0.16793299 0.00076965988 12362663 -0.1069328 -0.069874525 0.99180794 0.0017017811
0.53798312 -0.16449323 0.0012759119 12428715 -0.11629339 -0.070069864 0.99074018 0.0013806086
0.55841839 -0.16884248 0.0041093081 12626094 -0.16291952 -0.06257496 0.98465306 0.0017639028
0.56867921 -0.16121249 0.0060517639 12758194 -0.12652174 -0.044752806 0.9909538 0.0030780293
0.57623541 -0.16959883 0.007880196 12626864 -0.11035735 -0.060513105 0.99204814 0.0030946638
0.58135533 -0.16406822 0.008259207 12692400 -0.1049308 -0.044746585 0.99347234 0.0031238815
0.59178442 -0.16249783 0.0083398223 12758450 -0.086548328 -0.028470062 0.99584079 0.0027009521
0.6035918 -0.16683893 0.009396255 12890038 -0.10411009 -0.022703405 0.99430662 0.002494368
0.52610916 -0.15655683 0.0023257434 12495019 -0.11667848 -0.062441684 0.99120498 0.0013289256
0.54598403 -0.1586832 0.0031942129 12625838 -0.12115887 -0.081962489 0.98924351 0.002158958
0.55932027 -0.15504298 0.0048021972 12626095 -0.13630137 -0.052251384 0.98928851 0.0032600719
0.57342076 -0.15369634 0.0074768662 12692401 -0.10920686 -0.016440168 0.99388313 0.0037885651
0.58061099 -0.15116279 0.0077509284 12758450 -0.10107398 -0.011220761 0.99481571 0.0027528731
0.5928514 -0.15534674 0.0085023195 12824501 -0.095521063 -0.019508466 0.99523628 0.0018886914
0.60554725 -0.15473339 0.0096312463 12823985 -0.11203977 -0.03663421 0.99302828 0.0011128957
0.51639766 -0.1471097 0.00023154914 12297901 -0.10543747 -0.052485723 0.99303991 0.0017183458
0.52806598 -0.1480072 0.0022361279 12428459 -0.12868652 -0.044503104 0.99068636 0.0011225753
0.54458165 -0.14822924 0.0032826066 12494764 -0.12238126 -0.055929009 0.990906 0.0021933918
0.55458659 -0.14281458 0.0049240589 12626612 -0.12212209 -0.033469692 0.99195063 0.0025277338
0.57209349 -0.1428318 0.0062206686 12560560 -0.10906878 -0.0058439262 0.994017 0.0030873374
0.58260918 -0.1442433 0.0075846016 12758193 -0.095141768 0.0011167005 0.99546313 0.0015101406
0.59270012 -0.14561687 0.0092406124 12823989 -0.10854158 -0.012511164 0.99401319 0.0019693973
0.60730338 -0.14504397 0.0097593367 12889777 -0.11858568 -0.027744938 0.99255615 0.0010561105
0.49886188 -0.13942946 0.00039514899 6769747 -0.095603861 -0.039421212 0.99463862 0.0018014853
0.51467705 -0.13624534 0.00010035932 12166317 -0.10376884 -0.030238576 0.99414164 0.0018567665
0.52958506 -0.1371782 0.0024813265 12363436 -0.095720738 -0.035176419 0.9947865 0.0013788317
0.53971291 -0.1351704 0.0036151484 12429230 -0.12831016 -0.015853688 0.99160737 0.0022152353
0.55572277 -0.1384282 0.007266432 12626864 -0.12405843 -0.020249266 0.99206829 0.0029080235
0.56050736 -0.13205157 0.0060664862 12691634 -0.094707191 -0.017263666 0.99535549 0.0019526804
0.57192194 -0.13341022 0.0069596916 12691635 -0.10093818 -0.0087313848 0.99485439 0.0026692299
0.58527762 -0.13496672 0.0073650628 12758195 -0.09433493 -0.011932105 0.99546903 0.0014027534
0.60926473 -0.13286637 0.0099975169 12626351 -0.11566859 -0.03468857 0.99268204 0.0013535664
0.51607198 -0.12744674 0.00062204897 12166055 -0.10520348 -0.0096698813 0.99440372 0.0016815814
0.52362728 -0.12324381 0.0011078641 12033957 -0.11626241 -0.027803851 0.99282932 0.0009861571
0.53170151 -0.12858965 0.0023349524 12363433 -0.10297606 -0.031000806 0.99420065 0.0011176724
0.54892778 -0.12503164 0.0040637031 12429227 -0.12044077 -0.013648922 0.99262667 0.0021516259
0.56129509 -0.12059257 0.0066283643 12495023 -0.097371787 -0.01493096 0.99513614 0.0020047983
0.5738253 -0.12184169 0.0071493685 12495026 -0.10719261 -0.017784659 0.99407923 0.0013796249
0.58610046 -0.12307137 0.0079438686 12495279 -0.09682823 -0.019721137 0.99510574 0.00092943513
0.59563094 -0.12165789 0.0099928826 12889525 -0.12285227 -0.016157648 0.99229348 0.0013258263
0.51385856 -0.1178996 0.0018288493 12362922 -0.10060912 -0.030261982 0.99446577 0.0023132414
0.5328902 -0.1198705 0.0025452673 12297387 -0.097037524 -0.027946964 0.99488831 0.0011885004
0.54238737 -0.11416159 0.0042009503 12625322 -0.11440564 -0.020177973 0.99322921 0.00093805528
0.57525945 -0.11021063 0.0075028837 12495278 -0.10221627 -0.019124523 0.99457836 0.00089826289
0.58723783 -0.11120775 0.0084162652 12626356 -0.1019277 -0.020888142 0.99457252 0.001135707
0.5132128 -0.10713568 0.0017432421 12493991 -0.10916892 -0.030178685 0.99356502 0.0030758241
0.52076423 -0.10775477 0.0015330017 12362408 -0.11083786 -0.031042427 0.99335355 0.0033196269
0.53286141 -0.10884406 0.0033840388 12494253 -0.094545431 -0.038357642 0.99478132 0.0024919529
0.54106528 -0.1073717 0.0051888376 12297385 -0.10776132 -0.032434806 0.99364763 0.0012908364
0.55522639 -0.10848569 0.0047922581 12560304 -0.10570404 -0.019621808 0.99420404 0.00077416684
0.56371582 -0.10463564 0.0069501176 12691634 -0.11125397 -0.017711408 0.99363416 0.00076865882
0.57461226 -0.10080232 0.0084024221 12560050 -0.100932 -0.022186004 0.99464595 0.0009813275
0.5054177 -0.093815751 0.0012959093 11836069 -0.087805331 -0.019601047 0.9959448 0.0025463041
0.51594853 -0.096603855 0.0014786571 12231593 -0.13807571 0.0038236992 0.99041432 0.0033468711
0.5257678 -0.097300112 0.0022557378 12297388 -0.11812761 -0.0011508651 0.99299777 0.0033302589
0.53282899 -0.097860612 0.0042209029 12297389 -0.10164572 -0.011439382 0.99475485 0.0028636549
0.5450775 -0.098666884 0.0043709427 12362922 -0.091026574 -0.032852761 0.99530643 0.0014827248
0.55587727 -0.094877183 0.0055626258 12560047 -0.099215075 -0.02232777 0.99481547 0.0011577432
0.56673819 -0.09094198 0.0068972856 12428974 -0.11519307 -0.025665943 0.99301159 0.00067993451
0.57632756 -0.091513366 0.008491233 12428975 -0.091979541 -0.025087679 0.99544483 0.00065227022
0.58785671 -0.092174314 0.0095733851 12560560 -0.095435172 -0.011110239 0.99537373 0.0010585694
0.59058839 -0.09942998 0.0081499219 12495280 -0.11462247 -0.01381325 0.99331313 0.0010244387
0.4882254 -0.082490996 0.00026193261 11967909 -0.097424909 -0.0095245307 0.9951973 0.0018863395
0.51408958 -0.086850718 0.00067616254 12166057 -0.11667205 -0.0032282248 0.99316525 0.0032849396
0.52694792 -0.088667929 0.002458632 12362411 -0.10875222 -0.0031428859 0.99406397 0.0030532919
0.53167695 -0.089072883 0.0053115487 12362667 -0.12705734 -0.011040356 0.99183393 0.0029252232
0.54688513 -0.085313573 0.0047039539 12428459 -0.10065445 -0.01996683 0.99472106 0.0018149206
0.55699927 -0.081277601 0.0061643571 12428205 -0.1029526 -0.020440627 0.9944762 0.00099128264
0.56873834 -0.082628772 0.0084491968 12428975 -0.11432151 -0.020482393 0.99323267 0.00067595323
0.59006578 -0.082698375 0.0095201731 12428977 -0.095841676 -0.029477563 0.99496007 0.00087579706
0.49028271 -0.074383982 4.0352345e-05 12230824 -0.08938995 -0.05096516 0.99469197 0.003485821
0.50092691 -0.074699625 8.1032515e-05 11374480 -0.094065994 -0.016515236 0.99542898 0.0013524861
0.51022607 -0.075021923 0.0008237958 12232624 -0.087322146 -0.033013903 0.99563301 0.0010289834
0.52512705 -0.077171512 0.0023017377 12165029 -0.13961558 -0.01716949 0.99005693 0.0025171386
0.53413951 -0.078184821 0.0052084327 12231081 -0.12230547 -0.023666341 0.99221033 0.0022629234
0.54681289 -0.07192938 0.0057257861 12362665 -0.10748534 0.0080803884 0.99417382 0.0013307403
0.55585861 -0.07222607 0.0072379112 12428459 -0.11238211 -0.0156294 0.99354219 0.00099680386
0.56872994 -0.072536454 0.0075469315 12428974 -0.10977546 -0.0093393074 0.99391258 0.00066616503
0.57900059 -0.076368086 0.0086780712 12560048 -0.094105653 -0.028047385 0.99516702 0.00081882498
0.59085065 -0.073185682 0.0099410564 12494766 -0.10512096 -0.024853732 0.99414885 0.0012411892
0.50207484 -0.066411816 0.0002578795 9861759 -0.071965545 -0.055127084 0.99588257 0.003936579
0.51512945 -0.066709913 0.0018119961 12034474 -0.11054373 -0.026084453 0.99352896 0.00093889015
0.52873349 -0.067025423 0.0034161955 12165803 -0.11459378 -0.00019495191 0.99341244 0.0017266528
0.53676212 -0.067254044 0.0050487071 12297388 -0.10387874 0.0037194602 0.99458307 0.0015346603
0.5648098 -0.060950577 0.0073360652 12297131 -0.10916572 -0.006864999 0.99399984 0.00071491947
0.57882917 -0.061192617 0.0098327696 12363183 -0.10381973 -0.001873143 0.99459445 0.0014695622
0.48841247 -0.052176543 0.0025702715 12099490 -0.099859834 -0.024981316 0.99468791 0.0050533144
0.50049263 -0.056038227 0.00060109794 9403008 -0.069694072 -0.023577482 0.99728978 0.0041825776
0.51132143 -0.056106515 0.0018469095 12034986 -0.077128552 -0.015320597 0.99690342 0.0024130316
0.52366549 -0.056177672 0.0031116307 12165029 -0.11211534 -0.0033890503 0.99368942 0.0013741531
0.5332697 -0.051751345 0.0028386563 12100007 -0.10327458 0.0071191601 0.99462748 0.0012855146
0.54522443 -0.054392006 0.0048516169 12231591 -0.10927571 0.0093706213 0.99396729 0.0010064025
0.57881653 -0.051701985 0.0080451071 12034729 -0.11911717 -0.00084555149 0.99287987 0.0012805634
0.48781595 -0.048187368 0.003133595 11967907 -0.10856876 -0.02253991 0.99383342 0.0046898406
0.50198317 -0.044976987 0.00047767162 9138300 -0.065289646 0.0035069659 0.99786019 0.0041132504
0.51405799 -0.045501564 0.0015712082 11902888 -0.10069355 0.0055806637 0.9949019 0.0010389015
0.55728012 -0.048813388 0.0068583488 12231335 -0.12530752 0.0091038654 0.99207622 0.00072433148
0.56131005 -0.040468276 0.0076333731 11902117 -0.13930525 -0.0098803909 0.99020022 0.0016649151
0.58035606 -0.04395112 0.0089150965 11968677 -0.10874739 0.023999866 0.99377966 0.0013486757
0.49626374 -0.035548884 0.00059808791 11705503 -0.078166254 0.018892402 0.99676132 0.0034198915
0.50324702 -0.035261698 0.00041721761 10585483 -0.072624601 0.022836583 0.99709791 0.0033329679
0.51662642 -0.036933426 0.0012053847 12033960 -0.091105521 0.013851143 0.99574494 0.00097058417
0.52086294 -0.037039548 0.0041140616 11705506 -0.095920146 0.0099559464 0.99533933 0.0010484161
0.53405696 -0.036537319 0.0036908239 11968166 -0.10569224 0.0090174042 0.99435806 0.0011931306
0.54671311 -0.039357599 0.0053439438 11902625 -0.11002872 0.0032155144 0.99392325 0.001126813
0.55782497 -0.032181062 0.0062838048 11902879 -0.14017379 -0.010105807 0.99007535 0.0017454843
0.57281613 -0.034479432 0.0089014098 11771042 -0.10470209 -0.012549142 0.99442446 0.0023237118
0.58676612 -0.034002639 0.0091027543 11836836 -0.083702452 0.0085304137 0.99645424 0.0020927286
0.50456905 -0.024830757 0.00023822486 11507094 -0.076739304 0.023762304 0.996768 0.0020177413
0.51796842 -0.026309434 0.0014891922 11902626 -0.098295197 0.010517652 0.99510169 0.00093279069
0.52579522 -0.028166693 0.0028628558 11836319 -0.10323152 0.0051119141 0.99464428 0.0011643493
0.53695023 -0.029830383 0.0030923486 11967907 -0.10980102 0.0034569129 0.99394763 0.0011606981
0.54728526 -0.025028137 0.0042851567 12033700 -0.1260727 0.0074481964 0.99199307 0.00056125788
0.55641294 -0.020214804 0.0060660988 11967904 -0.14929509 0.00015622005 0.98879272 0.0017351165
0.56585211 -0.025451962 0.0071199089 11902882 -0.12215923 -0.0064028115 0.99248987 0.0025306169
0.58227658 -0.02129055 0.0090738535 11771044 -0.087101258 -0.014686205 0.99609125 0.002928722
0.50516891 -0.015283247 0.00028735399 11836829 -0.10609865 0.00036458671 0.99435556 0.00091496005
0.51743245 -0.015882568 0.0025092363 11967907 -0.10189936 -0.011145677 0.99473226 0.0010339348
0.52840585 -0.017265588 0.0026755035 11967647 -0.099090859 -0.012565581 0.99499899 0.0011722466
0.53643608 -0.019045396 0.0041066706 11968422 -0.097947367 -0.00011204184 0.99519163 0.0011332174
0.54499567 -0.018651105 0.0056200475 11901860 -0.11786595 -0.0055899285 0.9930138 0.00054881407
0.56593513 -0.013006531 0.0080070943 11968164 -0.13441139 -0.0033945367 0.99091989 0.0024903438
0.50564051 -0.006174773 0.00050476193 11836318 -0.10920784 -0.017575189 0.99386358 0.0003713796
0.51501381 -0.0055016093 0.0020079762 11903142 -0.10769823 -0.02082191 0.99396563 0.00032933243
0.52897906 -0.0065478105 0.0032714605 11967649 -0.10300246 -0.019675016 0.99448651 0.00050493371
0.53938293 -0.0079079382 0.0038235784 11967908 -0.10074676 -0.01940359 0.9947229 0.00047663704
0.54893333 -0.0050526308 0.0051689669 12033444 -0.11994675 -0.012028235 0.99270743 0.0014696217
0.55670631 -0.0090532713 0.0067890882 12033442 -0.14080814 -0.0045854449 0.9900263 0.0024395227
0.57426322 -0.0055394005 0.0080645159 11902628 -0.12678076 -0.011625002 0.99186265 0.0036053397
0.47413093 0.0028166641 7.0467591e-05 11967392 -0.094745219 0.010653421 0.9954446 0.003005089
0.50228041 0.0037186127 0.0011749566 11111567 -0.098376155 0.0082247257 0.9951154 0.0013708167
0.51605952 0.0037333127 0.0027605295 12034216 -0.10765627 -0.007754188 0.99415791 0.00062929455
0.52921677 0.0019903872 0.0038318634 12098724 -0.10122862 -0.0091816001 0.99482089 0.0005247888
0.53965372 0.0029368158 0.0045421273 12033445 -0.10399261 -0.023626033 0.99429744 0.00089242664
0.55935061 0.00018199719 0.0065102428 12099237 -0.14647371 0.00019582734 0.9892146 0.0026007141
0.56104708 0.0093359891 0.0065715313 12099751 -0.13191876 -0.0058164112 0.99124348 0.003388854
0.57949477 0.0063232239 0.0095539689 12099750 -0.11632276 0.012810973 0.9931289 0.0045210356
0.59304696 0.0076193158 0.0099778026 12099495 -0.090991996 -0.0070414646 0.99582672 0.0028652302
0.50438088 0.014218802 0.0011237562 9467515 -0.10887811 0.0078892857 0.99402386 0.0010930182
0.51775467 0.013616638 0.0023882538 11968421 -0.11026285 0.0010461846 0.99390191 0.00059308973
0.53120589 0.012900727 0.0038884282 12098980 -0.11384782 -0.0075398758 0.9934696 0.0012436749
0.54537332 0.011089284 0.0053619519 11968421 -0.098127648 -0.018151084 0.99500835 0.00092185196
0.5622676 0.018426588 0.0068019032 12230822 -0.13165756 -0.015485828 0.99117434 0.0032277585
0.572492 0.014990313 0.0077313483 12231081 -0.12242168 0.0065745441 0.99245644 0.003561483
0.50773817 0.024993395 0.00056894124 8153199 -0.12010787 0.012376578 0.99268371 0.0006425468
0.51524246 0.023808656 0.0019084811 11772070 -0.12164953 0.015976664 0.99244457 0.00065384177
0.52576786 0.023097163 0.0021853149 11836575 -0.1273109 0.010444272 0.99180788 0.0011265595
0.53146315 0.02356053 0.0046035945 12033447 -0.12897065 0.0023778006 0.99164557 0.00099786441
0.54467875 0.023725377 0.0057803094 12099494 -0.10777768 0.0015390373 0.99417382 0.0017075943
0.56396872 0.027637461 0.0068656951 12230824 -0.13208368 0.013065588 0.99115252 0.0033272153
0.57314849 0.028667094 0.0085047483 12297126 -0.11292052 0.013801605 0.99350816 0.00283522
0.50700927 0.032987423 0.0015028715 7887978 -0.09938813 0.0035226869 0.99504256 0.0017997532
0.51978672 0.035535894 0.0025006533 11902114 -0.12180907 0.00030710176 0.99255353 0.00089018518
0.52647108 0.031619899 0.0025624037 11836065 -0.11704237 -0.0040406329 0.9931187 0.00085464463
0.53457505 0.035823688 0.0043242946 11967656 -0.12411234 0.011324981 0.99220353 0.0019450339
0.55318129 0.035057954 0.0065927505 12165030 -0.10820256 0.0024111762 0.99412596 0.001642317
0.56474161 0.038906649 0.0074215978 12099750 -0.11789677 -0.0014132224 0.99302489 0.001370694
0.57246667 0.037561774 0.0094030946 12165545 -0.10216043 0.024404848 0.99446857 0.0024744715
0.58563495 0.034863599 0.009499304 12231335 -0.095747828 0.0093340268 0.99536186 0.001708955
0.48963532 0.046244048 0.0010854751 11704732 -0.088376403 -0.012717701 0.99600601 0.0027682718
0.50959063 0.043705575 0.0012678802 9334905 -0.086083561 -0.0010194257 0.99628747 0.0025510688
0.51900446 0.043155015 0.0018786192 11967905 -0.13707069 -0.0034216717 0.99055541 0.0014229133
0.52752751 0.044424854 0.0031289607 11901858 -0.10479784 -0.0035314932 0.99448729 0.0013278143
0.53513849 0.045482542 0.0048429668 11902631 -0.10619302 0.0022003781 0.99434316 0.0012613386
0.54800177 0.045505561 0.0045754015 12033445 -0.11260417 0.0084247887 0.99360424 0.0013819158
0.55619383 0.048819266 0.0064997822 12296360 -0.10668567 0.010409608 0.99423838 0.0012769953
0.57437509 0.047904894 0.0078628361 12165546 -0.09901008 -0.0027297996 0.99508274 0.00070855301
0.49170566 0.054602981 0.00085350126 11638943 -0.07790342 0.015679266 0.99683762 0.0027054583
0.51531494 0.053912595 0.0019677803 11506845 -0.11048506 0.01430108 0.99377483 0.0019656913
0.52965605 0.053300239 0.0029629618 11705503 -0.10284382 -0.0072119087 0.9946714 0.00093207083
0.5425933 0.053230971 0.0048879385 11902114 -0.10841203 0.0010758342 0.99410552 0.0013977358
