# .PCD v0.7 - Point Cloud Data file format
VERSION 0.7
FIELDS x y z rgb normal_x normal_y normal_z curvature
SIZE 4 4 4 4 4 4 4 4
TYPE F F F U F F F F
COUNT 1 1 1 1 1 1 1 1
WIDTH 538
HEIGHT 1
VIEWPOINT 0 0 0 1 0 0 0
POINTS 538
DATA ascii
2.5066655 -0.27716228 0.44407955 14669278 -0.99330688 0.1121437 -0.027663134 0.066119783
2.5070019 -0.25828543 0.44399449 14537692 -0.9962377 0.079399049 -0.034733295 0.075611539
2.525558 -0.24083684 0.44632697 14406106 -0.95481902 -0.021485666 -0.29641032 0.064819761
2.5258968 -0.22182293 0.44624126 14471386 -0.96713221 -0.0083143758 -0.25413817 0.050167929
2.5262356 -0.20280899 0.44615555 14340055 -0.96159947 -0.14453027 -0.23331854 0.03227799
2.5265744 -0.18379505 0.44606987 14274262 -0.9782899 -0.027443277 -0.20541625 0.046341538
2.5269132 -0.16478111 0.44598415 14142676 -0.95189291 -0.039355878 -0.30389306 0.049857173
2.527252 -0.14576718 0.44589844 14011348 -0.94752282 -0.037064996 -0.31753224 0.058733374
2.5093563 -0.12614775 0.44339886 14011347 -0.93473041 0.13546284 -0.32852536 0.066913754
2.5096924 -0.10727095 0.44331375 13945808 -0.96159405 0.13344547 -0.23985253 0.06252481
2.5282683 -0.088725396 0.44564131 13682383 -0.97567099 0.091453299 -0.19925471 0.06596496
2.5286071 -0.069711462 0.4455556 13813711 -0.99623495 0.017265657 -0.084958076 0.089070812
2.5289459 -0.050697524 0.44546989 13681870 -0.97346324 -0.21872516 -0.06729541 0.076928347
2.5110378 -0.031763699 0.44297341 13484746 -0.9323045 -0.34704652 0.10181821 0.076113895
2.5113742 -0.012886878 0.44288832 13418949 -0.99265474 -0.086446978 -0.084637716 0.080195658
2.5117106 0.0059899297 0.44280323 13484746 -0.97518528 0.0058289082 -0.22131363 0.034225415
2.5120471 0.024866749 0.44271815 13484234 -0.9450888 -0.075689748 -0.31792805 0.023917247
2.5123832 0.043743555 0.44263306 13484234 -0.96066815 -0.082147621 -0.26527062 0.026384132
2.5127196 0.062620379 0.44254795 13550026 -0.95405984 -0.15278447 -0.25773391 0.02426721
2.513056 0.081497185 0.44246289 13286855 -0.95212346 -0.059423514 -0.29988313 0.030753406
2.5137286 0.11925081 0.44229272 13023682 -0.95876265 -0.096507989 -0.26732096 0.038663995
2.514065 0.13812764 0.4422076 13023682 -0.97722375 -0.022344301 -0.21103194 0.032834154
2.515074 0.19475806 0.44195235 12892096 -0.95521259 0.29194021 -0.048372634 0.026318487
2.5154104 0.21363491 0.44186726 12892096 -0.93940604 0.33876017 0.052515853 0.025520673
2.5157468 0.23251173 0.44178215 12759740 -0.96693593 0.25498858 0.0039816871 0.034783497
2.5343666 0.25352538 0.44409859 12759483 -0.95062172 0.089951642 -0.29703054 0.065701507
2.5347052 0.27253932 0.44401288 12562362 -0.90101624 -0.14586993 -0.40852386 0.060339112
2.5167558 0.28914213 0.44152692 12627642 -0.88859278 -0.1780245 -0.42274129 0.066907384
2.5174284 0.32689577 0.44135672 12496569 -0.94309986 0.31747448 -0.098856874 0.06215151
2.5360603 0.34859505 0.44367006 12628154 -0.96282029 0.16842346 -0.21121247 0.067658812
2.5363991 0.36760899 0.44358435 12562102 -0.95599532 -0.00095190795 -0.29338041 0.048240095
2.5367379 0.38662291 0.44349864 12627127 -0.94978726 -0.10072549 -0.29624069 0.027834741
2.5370767 0.40563685 0.44341293 12430518 -0.95334184 -0.12942052 -0.27274472 0.027276734
2.5374155 0.42465079 0.44332722 12167346 -0.98496294 0.0065916227 -0.17263982 0.037879374
2.5194466 0.44015664 0.44084617 12298160 -0.98309827 0.026194707 -0.18119551 0.038847495
2.5380931 0.46267864 0.4431558 12363953 -0.96072149 0.15065776 -0.2330589 0.050975297
2.5384319 0.48169258 0.44307011 12231856 -0.92973787 0.1974373 -0.31081527 0.030088782
2.5387707 0.50070649 0.4429844 12166063 -0.94668597 -0.03416045 -0.32034168 0.036752362
2.5391095 0.51972044 0.44289869 11771818 -0.97075754 -0.077018999 -0.22737177 0.037579019
2.5394483 0.53873432 0.44281301 11575207 -0.99903703 0.03846297 -0.02111114 0.024382547
2.5397871 0.55774826 0.4427273 11706023 -0.99732167 0.057529062 0.045165308 0.015316925
2.5401258 0.57676226 0.44264159 11443621 -0.98086548 0.18198951 -0.069157153 0.034403935
2.5404646 0.59577614 0.44255587 11640232 -0.95916611 0.2057547 -0.19407576 0.040980633
2.5591335 0.61953223 0.44485977 11311265 -0.94690168 0.090097271 -0.30864185 0.043735325
2.5594747 0.63868332 0.44477347 11377058 -0.9397617 0.026308175 -0.34081647 0.042903468
2.541481 0.65281796 0.44229874 11245472 -0.91961128 -0.086478956 -0.38319257 0.03423417
2.5418198 0.67183185 0.44221303 11048347 -0.95087612 -0.02253855 -0.30875006 0.041126113
2.5421586 0.69084579 0.44212732 11047834 -0.95717651 0.039271548 -0.28682899 0.030603956
2.5424974 0.70985973 0.44204161 10784410 -0.95472956 0.024897492 -0.29643169 0.046756305
2.5428362 0.72887367 0.44195592 10916509 -0.95232254 0.092635445 -0.29068971 0.042784672
2.561522 0.75358963 0.4442555 10654105 -0.96116662 0.12480249 -0.24613652 0.035414357
2.5435138 0.76690155 0.4417845 10456728 -0.9776752 0.0370453 -0.20683055 0.057441153
2.5622046 0.79189175 0.44408289 10259349 -0.98554999 -0.1484026 -0.081657216 0.045466851
2.5441914 0.80492938 0.44161311 10325653 -0.98832375 -0.14945805 -0.029639836 0.052087173
2.5445302 0.82394332 0.4415274 10128020 -0.95389795 -0.23450629 -0.1873115 0.070814073
2.5448689 0.84295726 0.44144168 10192020 -0.87861484 -0.23956594 -0.413091 0.064195983
1.6955737 0.8693403 0.44059989 4793875 -0.87375396 -0.44538507 -0.19541278 0.059903502
1.7035793 0.86114287 0.44225535 5779492 -0.69909841 -0.71029079 -0.082148977 0.10177428
1.7280397 0.86142999 0.44710961 6700080 -0.15054296 -0.98502582 0.084029458 0.03087353
1.842193 0.86797071 0.44287422 7620918 -0.030461784 -0.99924392 -0.024159059 0.009585306
2.0169237 0.86616671 0.44552842 8017745 -0.22674157 -0.97214872 0.05928858 0.019390121
2.0746124 0.86201125 0.44012192 8675424 -0.26922008 -0.95832634 0.095557049 0.027226238
1.7699841 0.87085581 0.44247636 7028530 0.19396664 -0.98086369 -0.016833656 0.0066401786
1.8809637 0.87328815 0.44996086 7818297 0.035335235 -0.99935514 0.0063864002 0.005466335
1.9104074 0.87404519 0.44141969 7425081 -0.039608523 -0.99917436 -0.0090530496 0.0042607179
1.9419552 0.8748731 0.44698122 7752504 -0.029274153 -0.99949372 0.012465481 0.0053097359
2.0059161 0.8760044 0.44359282 7490362 -0.10750018 -0.99359685 0.034770478 0.0098398896
1.6957976 0.88190204 0.44054326 4727319 -0.94644809 -0.26957437 -0.17766713 0.029176366
1.6960213 0.89446366 0.44048664 5056274 -0.94757515 -0.24086417 -0.20996639 0.02641953
2.5458853 0.89999902 0.44118455 9798026 -0.91494316 0.052262768 -0.40018457 0.047226321
2.5462241 0.91901296 0.44109884 9797769 -0.93985868 -0.047252383 -0.33827931 0.048087515
2.5076022 -1.2485753 0.45086941 12693938 -0.8394686 0.24055769 -0.48726231 0.03050584
2.507941 -1.2295614 0.4507837 12825785 -0.86004907 0.23499644 -0.4528712 0.056117106
2.5082798 -1.2105474 0.45069799 12958139 -0.89366394 0.14063789 -0.42612883 0.047537234
2.5267167 -1.1998177 0.45306066 13286334 -0.91600597 0.17822693 -0.35940003 0.055303358
2.5089574 -1.1725194 0.4505266 13615303 -0.9467783 0.10592712 -0.30395773 0.03144313
2.5273991 -1.1615155 0.45288798 13746887 -0.95656604 0.14904313 -0.25053459 0.039499409
2.5277402 -1.1423645 0.45280167 13812682 -0.90340912 0.27041534 -0.33275738 0.032575428
2.5280817 -1.1232135 0.45271537 14010059 -0.92057818 0.078938663 -0.38249779 0.038643185
2.5284228 -1.1040623 0.45262903 14076622 -0.93825656 -0.041960414 -0.34338602 0.041606009
2.528764 -1.0849113 0.45254269 14339794 -0.9816556 -0.04119616 -0.1861591 0.048510801
2.5291052 -1.0657603 0.45245638 14471639 -0.98984092 0.13964888 -0.026705617 0.027661374
2.5294464 -1.0466092 0.45237005 14537691 -0.99286437 0.11924645 0.00086064643 0.020869659
2.5297878 -1.0274582 0.45228371 14932450 -0.98104244 -0.094601512 0.16913402 0.024999922
2.530129 -1.0083072 0.4521974 14603484 -0.98173183 -0.1329903 0.13607451 0.042410407
2.5304701 -0.98915613 0.4521111 14537945 -0.99506527 -0.080367588 -0.058190558 0.046676785
2.5311527 -0.95085406 0.45193842 14932190 -0.97597075 0.092835851 -0.19713616 0.048547558
2.5314939 -0.93170303 0.45185211 14801117 -0.98415351 -0.11467087 -0.13524996 0.05753658
2.5318351 -0.91255194 0.45176578 14998496 -0.95380932 -0.14922361 -0.26073 0.053996265
2.5328588 -0.85509878 0.45150682 15393000 -0.99160004 -0.099213764 -0.08298181 0.040260084
2.534565 -0.75934345 0.45107517 15590379 -0.98090011 0.10288516 -0.1650749 0.052003983
2.5349061 -0.74019247 0.45098886 15524840 -0.95778787 -0.010736429 -0.2872754 0.048757333
2.4959178 0.061912917 0.45882627 13418441 -0.96702033 -0.13335529 -0.21699794 0.023123579
2.4962518 0.080652617 0.45874181 13221061 -0.97430086 -0.10867573 -0.19730054 0.022393536
2.4965856 0.099392317 0.45865732 13351877 -0.97918969 -0.0076860818 -0.2028016 0.023798298
2.4969196 0.118132 0.45857286 13154498 -0.99406904 -0.0051539647 -0.10862856 0.03197062
2.4972534 0.13687171 0.45848837 13089476 -0.99801409 -0.026833054 -0.056990609 0.029677533
2.4975874 0.1556114 0.45840392 13220291 -0.98803443 0.1035455 -0.11430778 0.039441708
2.4979212 0.1743511 0.45831946 13088705 -0.96943426 0.20824023 -0.12974314 0.030571593
2.5199058 0.38358492 0.45992419 12496309 -0.9449414 -0.19776979 -0.2607162 0.027325027
2.5202422 0.40246174 0.45983911 12496311 -0.95965946 -0.041654732 -0.27806222 0.047869064
2.5205786 0.4213385 0.45975402 12298677 -0.97866058 0.073209167 -0.1919997 0.064726792
2.520915 0.44021532 0.4596689 12233139 -0.99181503 0.041402996 -0.12078451 0.054777831
2.5212512 0.45909214 0.45958385 12298162 -0.99096745 0.070997179 -0.11376691 0.054936651
2.5215876 0.47796899 0.45949873 12232370 -0.96061236 0.13507426 -0.24285574 0.046872415
2.5225966 0.5345993 0.45924348 11771818 -0.9879716 0.11475892 -0.10364656 0.034081165
2.5262964 0.7422443 0.4583075 10654364 -0.95405537 0.16581614 -0.24956641 0.04587473
2.5279782 0.83662832 0.45788208 10323859 -0.88168502 -0.35027251 -0.31613424 0.063987479
2.5283146 0.85550511 0.45779696 10126993 -0.84167856 -0.26825508 -0.46863255 0.065237522
1.6965508 0.86937934 0.45312557 4989980 -0.72537428 -0.67091435 -0.1539678 0.095574692
1.7045612 0.86118209 0.45484182 6502190 -0.62162197 -0.7790252 -0.081890069 0.087198719
1.729036 0.86146981 0.45987841 6765860 -0.14075732 -0.98724586 0.074383944 0.036961377
1.7627779 0.86665428 0.45396474 6897973 0.17766359 -0.98395729 0.016242856 0.0075613204
1.8432567 0.8680132 0.4565089 7883827 0.0029398224 -0.99999428 0.0016659028 0.0098640285
1.931787 0.86958814 0.45933366 8080701 -0.027498884 -0.99961925 0.0023025041 0.0048117936
2.0514958 0.86660379 0.451372 8016464 -0.28252226 -0.95564032 0.083263166 0.030090904
2.0758135 0.86205924 0.45551887 8808293 -0.25663498 -0.96447283 0.062695205 0.027769135
1.8250043 0.87241662 0.45298412 7686965 -0.038767178 -0.99920708 -0.0090752188 0.011296161
1.9115114 0.8740893 0.45557091 7489845 -0.014296873 -0.9998917 -0.0034944422 0.0036676135
1.9734946 0.87522876 0.45254502 7818297 0.0047437949 -0.99991363 0.012257789 0.0054357136
2.0070765 0.87605077 0.4584657 7293755 -0.068735577 -0.9975481 0.013163202 0.0075378823
2.5286508 0.87438196 0.45771188 9995407 -0.9170087 0.047756575 -0.39599788 0.039831977
1.6967747 0.88194108 0.45306894 4923916 -0.92560625 -0.33881423 -0.1686949 0.031866319
1.8159964 0.88124961 0.45119187 7291953 -0.0057349866 -0.99980354 -0.018973578 0.01128519
1.6969985 0.8945027 0.45301232 5318674 -0.9094069 -0.34812272 -0.22757348 0.028158268
2.5289872 0.89325881 0.45762679 9863821 -0.91173387 0.088186614 -0.40120384 0.039362226
2.5293236 0.9121356 0.4575417 9797516 -0.93771106 0.055060811 -0.3430253 0.05066273
2.5112772 0.92393875 0.45494062 9666440 -0.9621104 0.021447089 -0.27181536 0.055070244
2.5299962 0.94988918 0.45737153 9534854 -0.98765016 0.021205934 -0.15523374 0.067696042
2.5303326 0.96876591 0.45728645 9337477 -0.98694724 -0.017960578 -0.16003931 0.083829708
2.5490584 0.99512798 0.45971543 9402498 -0.9581899 -0.21095768 -0.19331032 0.079637475
2.5310051 1.0065198 0.45711628 9270142 -0.9778524 -0.15660158 -0.13885491 0.086833514
2.5313416 1.0253966 0.45703116 9007740 -0.98133892 0.024846226 -0.19067423 0.099662267
2.5132806 1.0363768 0.4544338 8875634 -0.98123217 0.024800196 -0.19122863 0.10060574
2.4695396 -1.4185227 0.46549943 10851217 -0.98505211 -0.15245846 -0.080179214 0.017127691
2.4698737 -1.399783 0.46541497 10785426 -0.99511921 -0.0039981357 -0.098599173 0.037679359
2.4702075 -1.3810434 0.46533051 10982801 -0.98707181 0.14102675 -0.076162346 0.033282444
2.4705415 -1.3623039 0.46524605 10982803 -0.96844119 0.20064029 -0.14786902 0.030710796
2.4889622 -1.3530818 0.46775237 10853016 -0.95431554 0.22965971 -0.19115002 0.026830191
2.4892986 -1.334205 0.46766725 7163476 -0.96222347 0.19317546 -0.19185743 0.032125045
2.489635 -1.3153284 0.46758217 11507605 -0.98547179 0.093847744 -0.14155561 0.031361647
2.4899714 -1.2964514 0.46749708 11510428 -0.98378432 0.14586028 -0.10437048 0.035522435
2.4903076 -1.2775747 0.46741199 12231847 -0.98340261 0.14144547 -0.11363364 0.035514131
2.490644 -1.2586977 0.46732691 12363692 -0.95636493 0.068669945 -0.2839905 0.0508371
2.4909804 -1.2398211 0.46724179 12759731 -0.9234302 0.17352411 -0.34229532 0.042090796
2.4913168 -1.2209442 0.46715674 13022651 -0.84260476 0.25405931 -0.47483796 0.035234239
2.5097589 -1.2104883 0.46965739 13154491 -0.88794178 0.18966609 -0.41903007 0.032849364
2.5100977 -1.1914743 0.46957171 13286077 -0.89284086 0.25600183 -0.37053791 0.039570782
2.5104365 -1.1724603 0.469486 13417924 -0.93173039 0.18458137 -0.31274313 0.043092877
2.5107753 -1.1534464 0.46940029 13616071 -0.94025749 0.15235315 -0.30447406 0.041369639
2.5111141 -1.1344324 0.4693146 13747657 -0.93452901 0.054861214 -0.35163301 0.036118314
2.5117917 -1.0964047 0.46914318 14208208 -0.89079154 0.11657523 -0.4392046 0.046578161
2.5121305 -1.0773908 0.46905747 14339540 -0.93717021 0.20277743 -0.28388965 0.050466128
2.5138245 -0.98232108 0.46862891 14800606 -0.98897249 -0.046607312 -0.14057457 0.072347119
2.5141633 -0.9633072 0.46854323 14735324 -0.97237766 0.019870874 -0.23256591 0.051796671
2.5148408 -0.92527926 0.46837181 14866657 -0.98776299 -0.11998223 -0.099642441 0.064960651
2.5155184 -0.88725144 0.46820042 15195621 -0.98678863 0.086760141 -0.13682437 0.061481077
2.5158572 -0.8682375 0.4681147 15195621 -0.98545069 0.010007497 -0.16966678 0.055293437
2.5165348 -0.83020961 0.46794328 15196392 -0.99048734 -0.11002685 -0.08263804 0.039750304
2.5168736 -0.81119573 0.46785757 15196645 -0.99847817 -0.044982962 -0.031905185 0.03708867
2.5172124 -0.79218173 0.46777186 15262438 -0.99639648 0.053597488 -0.065737262 0.033947229
2.5175512 -0.77316779 0.46768615 15130598 -0.9800173 0.0356308 -0.19569513 0.053223241
2.51789 -0.75415391 0.46760044 15524586 -0.94314462 0.027134661 -0.33127326 0.045824558
2.5182288 -0.73513997 0.46751472 15459817 -0.92899048 -0.14515357 -0.34045124 0.039944217
2.5185676 -0.71612602 0.46742904 15525356 -0.91708511 -0.18246496 -0.35448769 0.034642894
2.5007343 -0.69239354 0.46477425 15656173 -0.95568359 -0.21503235 -0.20107207 0.033624083
2.5010707 -0.67351675 0.46468917 15327978 -0.97823155 -0.13250951 -0.15970056 0.023831841
2.5014069 -0.6546399 0.46460405 15327977 -0.99432802 -0.016903248 -0.1050052 0.020578649
2.5017433 -0.63576311 0.46451899 15327977 -0.99989992 0.0073858639 0.012068638 0.011224204
2.5020797 -0.61688626 0.46443388 15591149 -0.993433 0.11424484 0.0062490702 0.030341329
2.5024161 -0.59800947 0.46434879 15327207 -0.98681188 0.15551612 0.044912688 0.037799023
2.5209391 -0.5830285 0.46682909 15656172 -0.99216634 0.10711569 -0.064282745 0.053620912
2.5030887 -0.56025583 0.46417862 15459563 -0.99566656 -0.059346251 -0.071597524 0.052884746
2.5034251 -0.54137903 0.46409354 15262184 -0.97897053 -0.20121732 -0.033590857 0.0281517
2.5037613 -0.52250224 0.46400845 15196391 -0.99959803 0.0029100415 -0.028202685 0.030957006
2.5040977 -0.50362539 0.46392336 15064806 -0.99102384 0.12892532 -0.035356458 0.02525595
2.5044341 -0.48474851 0.46383825 15195622 -0.981489 0.15143815 -0.1172428 0.028303478
2.5047705 -0.46587169 0.46375319 15195621 -0.98903596 0.092702657 -0.11495256 0.049444836
2.5051067 -0.44699487 0.46366808 14998243 -0.99758208 -0.00022619995 -0.069498524 0.057782996
2.5054431 -0.42811811 0.46358302 14932449 -0.99877155 0.015248406 0.047147397 0.065244853
2.5057795 -0.40924129 0.46349791 14932192 -0.9881202 0.15316449 0.012614086 0.06192632
2.5061159 -0.39036447 0.46341282 14997730 -0.98683435 0.15546905 0.044579722 0.061292499
2.5246656 -0.37387523 0.46588632 14735071 -0.99991912 0.0090414863 -0.0089446306 0.065519504
2.5067885 -0.35261083 0.46324265 14735070 -0.99328786 -0.094256781 -0.06704361 0.054930303
2.5071249 -0.33373401 0.46315756 14603484 -0.99390125 -0.018273715 -0.10874934 0.054721754
2.5074611 -0.31485718 0.46307245 14800864 -0.98080981 0.17045471 -0.094643205 0.050711244
2.5260208 -0.29781953 0.46554348 14866656 -0.99393356 0.099076994 -0.047748748 0.06224646
2.5263596 -0.27880561 0.46545777 14603485 -0.99296665 0.1127198 -0.03621535 0.060164087
2.5266984 -0.25979167 0.46537206 14471899 -0.97850531 0.032245591 -0.20368496 0.061754771
2.5270371 -0.24077773 0.46528637 14603485 -0.96634203 -0.13088939 -0.22147492 0.04634231
2.5273759 -0.22176382 0.46520066 14406106 -0.95235431 -0.12512244 -0.27814686 0.027996479
2.5094793 -0.20159632 0.46256194 14142676 -0.96950614 -0.043766182 -0.24112733 0.024602706
2.5280535 -0.18373594 0.46502927 14142674 -0.96797502 -0.042186722 -0.24747664 0.023782574
2.5101519 -0.16384269 0.46239176 14010575 -0.98777205 -0.059243135 -0.14421025 0.037140284
2.5104883 -0.14496589 0.46230668 14142421 -0.99133241 -0.048167914 -0.12222917 0.04632343
2.5108247 -0.12608907 0.46222159 14076628 -0.98714507 0.08185108 -0.13727729 0.042212404
2.5294087 -0.10768021 0.46468642 13879761 -0.96396273 0.17523287 -0.20017324 0.052374784
2.5114973 -0.088335447 0.46205142 13682382 -0.96211797 0.20056248 -0.18467197 0.051711742
2.5300863 -0.069652349 0.464515 13879504 -0.9820627 -0.09807805 -0.16103914 0.085922457
2.5486803 -0.050695021 0.46697742 13813198 -0.97825944 -0.14780207 -0.14547528 0.082109451
2.5125062 -0.031705018 0.46179613 13681612 -0.9037202 -0.34991795 -0.2466726 0.065828599
2.5128427 -0.012828197 0.46171105 13418951 -0.94403148 -0.22071092 -0.24513529 0.04766662
2.5131791 0.0060486104 0.46162596 13484233 -0.96133739 -0.05952004 -0.26886386 0.026951281
2.5135155 0.024925429 0.46154088 13484744 -0.97048926 -0.068561397 -0.23119238 0.020621456
2.5138516 0.043802235 0.46145579 13550539 -0.96800923 -0.098863676 -0.23061696 0.019533753
2.5165424 0.19481674 0.46077508 12957119 -0.93743938 0.3469803 -0.028497711 0.023316175
2.5168788 0.21369359 0.46068999 12826303 -0.93325412 0.35330388 -0.064908139 0.024381442
2.535507 0.23457059 0.46314368 12825533 -0.96855783 0.070053451 -0.23872206 0.058626436
2.5358458 0.25358447 0.46305799 12693435 -0.96561116 -0.010628978 -0.25977337 0.060888141
2.5178878 0.27032405 0.46043471 12759483 -0.92744815 -0.10548046 -0.35876718 0.056809649
2.5182242 0.28920081 0.46034965 12562361 -0.92260283 -0.25585771 -0.28868833 0.062662862
2.5185606 0.30807763 0.46026453 12693947 -0.93811035 0.28738934 -0.19327809 0.077504389
2.5188968 0.32695445 0.46017945 12627895 -0.91736317 0.37288892 -0.13927916 0.060761724
2.5375395 0.34865415 0.46262947 12562104 -0.97470188 0.096462697 -0.20162146 0.058921218
2.5378783 0.36766809 0.46254376 12496820 -0.98839635 -0.033290464 -0.14820422 0.04925622
2.5402498 0.50076562 0.46194381 11969198 -0.95348763 0.022202455 -0.30061337 0.033155717
2.5405886 0.51977956 0.46185809 11837612 -0.97926867 0.14490622 -0.14154571 0.036424711
2.5412662 0.55780739 0.4616867 11641000 -0.99885505 0.029276839 -0.037835285 0.041412294
2.541605 0.57682139 0.46160099 11377828 -0.9827674 0.013879684 -0.18432488 0.064246126
2.5419438 0.59583527 0.46151528 11377830 -0.93698448 0.028641798 -0.34819505 0.055975534
2.5422826 0.61484921 0.46142957 11508387 -0.91599923 0.0408337 -0.39909652 0.040807936
2.5426214 0.63386315 0.46134385 11311265 -0.91002512 -0.056223437 -0.41072285 0.034625679
2.5429602 0.65287709 0.46125814 11245726 -0.89419097 -0.046239052 -0.44529149 0.046392966
2.543299 0.67189097 0.46117243 11179933 -0.91039604 0.025470609 -0.41295323 0.043393146
2.5436378 0.69090492 0.46108672 11113886 -0.95182818 0.064902253 -0.29968461 0.032097433
2.5439765 0.70991886 0.46100101 10982300 -0.9578535 0.059624419 -0.28100106 0.042635284
2.5443153 0.7289328 0.46091533 10916250 -0.97499806 0.12838826 -0.18137066 0.048791233
2.5449929 0.76696068 0.4607439 10522779 -0.96299863 0.044401389 -0.26582363 0.051390223
2.5453317 0.78597462 0.46065822 10653337 -0.96102083 -0.0043153628 -0.27644247 0.03480389
2.5456705 0.8049885 0.46057251 10390935 -0.94406056 -0.23107737 -0.23527187 0.069556728
2.5460093 0.82400244 0.4604868 10324889 -0.83079714 -0.43261585 -0.35017091 0.065100275
2.0524108 0.85139292 0.4666554 8874345 -0.25922087 -0.96458036 0.048881058 0.027184093
1.697528 0.86941844 0.46565124 4923932 -0.69224441 -0.72006708 -0.0479699 0.061393078
1.7055432 0.86122131 0.4674283 6436657 -0.56400228 -0.82478833 -0.040319629 0.04151801
1.7545329 0.86192214 0.46512413 7226675 0.099143736 -0.99240422 0.072831064 0.0035427222
1.8168042 0.8678233 0.46468219 7686713 -0.022305993 -0.99931765 0.029439257 0.010133642
2.0414047 0.8616569 0.46463445 8082519 -0.26944795 -0.96235597 0.035620145 0.027448084
1.7985349 0.87188333 0.46102223 7292464 0.071190916 -0.99713427 -0.025597014 0.013225108
1.8820499 0.87333155 0.4638842 7752253 0.010219331 -0.99961978 0.025611151 0.0048394469
1.9126154 0.87413341 0.46972212 7753017 -0.0095433081 -0.99990505 0.0099420762 0.0024122768
1.9746354 0.87527436 0.46716717 8015158 0.0089249834 -0.99931079 0.036032379 0.0070057688
2.0293701 0.87129164 0.46243671 7754573 -0.24441203 -0.96958435 0.0130015 0.022751216
1.6825213 0.88601542 0.46231386 5318166 -0.8755126 -0.44257236 -0.19392632 0.031229062
1.6977519 0.88198018 0.46559462 5054750 -0.83310461 -0.54882252 -0.068779722 0.048947498
2.5295715 -1.123154 0.47181162 13945036 -0.88370073 -0.030208342 -0.46707657 0.03021404
2.5305951 -1.0657008 0.47155264 14471126 -0.97023135 0.19888589 -0.1381865 0.029621078
2.5309362 -1.0465497 0.4714663 14537432 -0.98573571 0.1393019 -0.094446227 0.029318798
2.5312777 -1.0273987 0.47137997 14800604 -0.98791134 -0.067610167 -0.13949955 0.028914291
2.5316188 -1.0082477 0.47129366 14800863 -0.9790954 -0.1811256 -0.092551596 0.032673839
2.5326426 -0.95079458 0.47103468 14800863 -0.97731906 0.1138001 -0.17859715 0.041234348
2.533325 -0.91249245 0.47086203 14998242 -0.97248328 -0.20995 -0.10098153 0.043471299
2.5343487 -0.8550393 0.47060308 15195622 -0.99697793 -0.024193341 -0.073822357 0.034968641
2.4960401 -0.012987593 0.47785017 13550537 -0.96257567 -0.17065296 -0.21053654 0.040128678
2.4963741 0.005752102 0.47776568 13484231 -0.97036183 -0.069486782 -0.23145102 0.020211086
2.4967079 0.024491794 0.47768119 13418953 -0.97811884 -0.022862991 -0.20678702 0.023575092
2.4970419 0.043231487 0.47759673 13352905 -0.98308575 -0.051427916 -0.17577697 0.024130076
2.4973757 0.061971173 0.47751227 13352394 -0.98875535 -0.045025002 -0.14260319 0.024771232
2.4977098 0.080710866 0.47742781 13221061 -0.9986012 -0.029795565 -0.043679167 0.020382516
2.4980435 0.099450566 0.47734332 13221061 -0.99986935 -0.0051347478 0.015327889 0.01302488
2.4983776 0.11819025 0.47725886 13155268 -0.99958676 0.025546217 0.013180465 0.013235602
2.4987113 0.13692996 0.47717437 13023940 -0.99942672 -0.011609573 -0.031804197 0.021725491
2.4990454 0.15566964 0.47708991 12957889 -0.99742395 0.06871482 0.020587264 0.025041752
2.4993792 0.17440934 0.47700545 13022912 -0.96603262 0.25824898 -0.0094045028 0.020058753
2.5180109 0.19487542 0.47959781 13022912 -0.93540657 0.33300668 -0.11883269 0.020047497
2.5183473 0.21375227 0.47951272 13022912 -0.94754934 0.22789411 -0.22408615 0.040280413
2.5186837 0.23262909 0.47942761 12629437 -0.96251363 0.03223224 -0.26931131 0.058886882
2.5190198 0.25150591 0.47934255 12825533 -0.93692869 -0.14704551 -0.31708404 0.055424139
2.5010488 0.26810783 0.47658309 12759228 -0.91694486 -0.16664368 -0.36254948 0.043937683
2.5013826 0.2868475 0.47649863 12759483 -0.97149366 -0.061717972 -0.22889087 0.078046009
2.5200291 0.30813631 0.47908726 12693686 -0.96248978 0.26519465 -0.057316773 0.078356326
2.5210381 0.36476678 0.47883201 12627895 -0.95541894 -0.099803813 -0.27787402 0.067297935
2.5213742 0.3836436 0.47874692 12496311 -0.93653697 -0.16787282 -0.30776182 0.049551021
2.5217106 0.40252042 0.47866184 12364982 -0.97968251 0.082975738 -0.18258493 0.068379171
2.522047 0.42139718 0.47857675 12298930 -0.99356616 0.1127327 0.010847338 0.064826988
2.5227196 0.45915082 0.47840658 12233137 -0.99846762 -0.044513445 0.032879423 0.050335642
2.523056 0.47802767 0.47832146 12166576 -0.99393708 -0.033598389 -0.10469195 0.044828862
2.5233924 0.4969044 0.47823641 12166576 -0.97550005 0.025423931 -0.21852542 0.033887621
2.5237288 0.51578122 0.47815129 11706795 -0.96519232 0.17927833 -0.19042853 0.041186396
2.524065 0.53465801 0.47806621 11771816 -0.95805347 0.19864555 -0.20657571 0.04581473
2.525074 0.59128851 0.47781095 11312035 -0.90796369 -0.14492178 -0.39319167 0.049784329
2.5254104 0.6101653 0.47772583 11377830 -0.88048351 0.049346983 -0.47150153 0.037461743
2.5257468 0.62904209 0.47764078 11377060 -0.85309958 -0.0022414436 -0.52174336 0.039835762
2.5260832 0.64791894 0.47755566 11179933 -0.89455831 -0.0035623119 -0.44693717 0.041593611
2.5264194 0.66679573 0.47747061 11179933 -0.90001601 0.05034874 -0.43293902 0.030154014
2.5270922 0.70454937 0.47730041 10982300 -0.90504962 0.097680911 -0.41393673 0.045387547
2.5457945 0.72899193 0.47987479 10982043 -0.93873823 0.12252457 -0.32211542 0.052022927
2.5461333 0.74800587 0.47978908 10719900 -0.94087255 0.094435193 -0.32533196 0.055046871
2.5464721 0.76701981 0.47970337 10654105 -0.91434342 0.090389982 -0.39472249 0.06476593
2.5468109 0.78603375 0.47961769 10587796 -0.93765771 -0.014584149 -0.34725398 0.049598537
2.5471497 0.80504763 0.47953197 10652824 -0.88063312 -0.27332932 -0.38700968 0.0718555
2.5474885 0.82406157 0.47944626 10521500 -0.85645747 -0.4001556 -0.32612306 0.07087712
2.5110657 0.83029842 0.47404897 10521751 -0.85371083 -0.36527148 -0.37115306 0.062577516
2.5113997 0.84903818 0.47396448 10324372 -0.9013108 -0.26397437 -0.34344774 0.066405751
1.6985052 0.86945748 0.47817698 5056544 -0.67266387 -0.71189362 -0.20181879 0.055073485
1.9329028 0.86963272 0.47363678 7884605 -0.0081490455 -0.99996424 0.0022720408 0.0027442011
2.5117335 0.86777788 0.47388002 10126993 -0.9843924 0.087714963 -0.15257056 0.047123522
1.6904831 0.87753248 0.47633973 4595983 -0.67419881 -0.71180302 -0.1969582 0.055288035
1.7995719 0.87192476 0.47431508 7621170 0.10271832 -0.99353874 0.04826732 0.010022977
1.8271104 0.87250078 0.47998008 7620918 -0.0051331846 -0.99843514 0.055686381 0.0094356025
1.8535726 0.87262273 0.47194386 7621429 0.0029091237 -0.99876839 0.0495308 0.0087051596
1.883136 0.87337494 0.47780755 7883841 -0.016020836 -0.99895996 0.042689811 0.0035250778
1.9655073 0.87055069 0.47986367 7950398 0.013704601 -0.99911839 0.039681863 0.0056153624
2.0082369 0.87609708 0.47333848 7227712 -0.075932473 -0.99650031 0.034948431 0.010043407
2.0305436 0.87133849 0.47747669 7951178 -0.26764795 -0.96351522 -0.0017428251 0.02224743
1.6834897 0.8860541 0.47472563 4989452 -0.66140682 -0.70787615 -0.24789624 0.046326201
2.5120676 0.88651758 0.47379556 9994894 -0.98284245 0.043440539 -0.17925866 0.067918167
2.530792 0.91219431 0.47636443 9995407 -0.94761193 0.16439685 -0.27387115 0.047750223
2.5311284 0.9310711 0.47627935 9732233 -0.97017843 0.098656885 -0.22140618 0.062943786
2.54986 0.9571591 0.47884628 9731976 -0.96943259 0.0054850359 -0.24529658 0.056948904
2.531801 0.96882463 0.47610918 9731722 -0.96999776 -0.046843886 -0.23855817 0.062571205
2.5321374 0.98770165 0.47602406 9599875 -0.94815749 -0.12579532 -0.29184416 0.060821842
2.5324736 1.0065784 0.47593901 9336703 -0.98939055 -0.005126805 -0.14519009 0.077049285
2.5144048 1.0176955 0.47320428 9139839 -1 -0.00025437822 8.2589693e-05 0.089869589
2.5331464 1.0443319 0.47576883 8876404 -0.98469335 0.047561884 -0.16768101 0.071461178
2.4709976 -1.4184644 0.48418543 10588815 -0.99297291 -0.10974889 -0.044272568 0.019108282
2.4713316 -1.3997247 0.48410097 10917012 -0.99901277 0.0014291821 -0.044401795 0.033532154
2.4716654 -1.3809851 0.48401651 10982803 -0.99597257 0.089658231 0.00030488521 0.024201391
2.4719994 -1.3622456 0.48393205 11113878 -0.99015367 0.13665329 -0.030358063 0.029546957
2.4723332 -1.3435057 0.48384756 11245203 -0.97922325 0.12687957 -0.15818797 0.033203162
2.4726672 -1.324766 0.4837631 9800598 -0.96217477 0.1934094 -0.19186613 0.031926796
2.473001 -1.3060263 0.48367861 12360845 -0.95469278 0.22923882 -0.18976632 0.02607964
2.4914398 -1.2963928 0.48631981 11836318 -0.96218395 0.24311063 -0.12287934 0.032041125
2.491776 -1.277516 0.48623472 12232106 -0.992145 0.10204786 -0.072350524 0.034112778
2.4921124 -1.2586391 0.48614964 12495532 -0.99602103 -0.023734609 -0.085899979 0.029529966
2.4924488 -1.2397624 0.48606452 12890802 -0.95949215 0.089679591 -0.26708144 0.037893519
2.4927852 -1.2208855 0.48597947 13088698 -0.92130011 0.12140356 -0.36941478 0.029269252
2.4931214 -1.2020087 0.48589435 13154491 -0.84898061 0.34759834 -0.39800423 0.037582148
2.4934578 -1.1831319 0.4858093 13286334 -0.9255662 0.28385183 -0.25051036 0.036225189
2.5119157 -1.1724012 0.48844546 13418438 -0.93926591 0.15232186 -0.30753478 0.04098573
2.5122545 -1.1533873 0.48835975 13681862 -0.92864579 0.15726399 -0.3359836 0.042009536
2.5125933 -1.1343733 0.48827407 13747657 -0.9294771 -0.045281421 -0.36609012 0.02733938
2.5129321 -1.1153595 0.48818836 13813450 -0.92571872 -0.0053166142 -0.37817535 0.031783987
2.5132709 -1.0963455 0.48810264 14339794 -0.90012258 0.21619315 -0.37820598 0.047375973
2.5136096 -1.0773317 0.48801693 14405333 -0.88955647 0.27124032 -0.36758417 0.041611031
2.5153036 -0.98226196 0.48758838 14669018 -0.98477817 -0.10997178 -0.13460377 0.060184747
2.5156424 -0.96324807 0.48750269 14603225 -0.9946503 -0.025167404 -0.10018734 0.059294745
2.51632 -0.92522013 0.48733127 14866910 -0.98875022 -0.074011952 -0.12998195 0.052715089
2.498503 -0.89997977 0.48453295 15064289 -0.98249644 -0.14579925 -0.11594545 0.041846156
2.5169976 -0.88719231 0.48715988 15261668 -0.99377626 -0.0013157069 -0.11138693 0.058017384
2.5173364 -0.86817837 0.48707417 15261414 -0.97382635 0.038435202 -0.22402018 0.054239113
2.5176752 -0.84916443 0.48698846 15393000 -0.97160941 -0.073310092 -0.22494619 0.037455276
2.518014 -0.83015049 0.48690274 15196392 -0.97478628 -0.080562398 -0.20808998 0.03703687
2.5183527 -0.8111366 0.48681703 15262184 -0.98270273 -0.033630703 -0.18211097 0.029100655
2.5186915 -0.7921226 0.48673132 15064805 -0.97825933 -0.044674084 -0.20251654 0.028693583
2.5190303 -0.77310866 0.48664561 15262184 -0.9606663 -0.088080756 -0.26336691 0.034883969
2.5011938 -0.74896526 0.48385224 15459563 -0.93572581 -0.014943277 -0.3524116 0.032780249
2.5015299 -0.73008841 0.48376715 15393770 -0.95262164 -0.10111974 -0.28685692 0.035231564
2.5200467 -0.7160669 0.4863885 15459563 -0.96360302 -0.088867284 -0.25213465 0.036037564
2.5022027 -0.69233483 0.48359698 15393771 -0.98974705 -0.12100965 -0.075878441 0.025634807
2.5025392 -0.67345804 0.48351189 15524587 -0.99483234 -0.10023895 0.016148696 0.017541315
2.5028753 -0.65458119 0.48342678 15393001 -0.99686486 0.018066078 0.077033699 0
2.5032117 -0.6357044 0.48334172 15393001 -0.99684423 0.018742792 0.077138074 0
2.5035481 -0.61682755 0.48325661 15458793 -0.98865575 0.13811234 0.059032612 0.019031344
2.5038846 -0.59795076 0.48317152 15458794 -0.98617429 0.1653306 0.011232182 0.034419034
2.5224183 -0.58296937 0.48578855 15261415 -0.99804908 0.038212609 0.049375236 0.05066292
2.5227571 -0.56395549 0.48570284 15196392 -0.99623072 -0.08658836 0.0051859473 0.051257577
2.5048935 -0.54132032 0.48291627 15196392 -0.99395853 -0.10845285 0.016866347 0.027054463
2.5052297 -0.52244353 0.48283118 15393001 -0.99945033 -0.022375023 0.024463898 0.010698772
2.5055661 -0.50356668 0.48274609 15195622 -0.99896514 0.039767697 0.02207301 0.011421287
2.5059025 -0.48468983 0.48266098 15261415 -0.99487036 0.09448161 -0.036141891 0.028015932
2.5062389 -0.46581301 0.48257592 15064035 -0.9912172 0.11988529 -0.055821069 0.033775203
2.5247896 -0.44987187 0.4851886 15195621 -0.9936465 0.088139825 -0.069986336 0.042959057
2.5251284 -0.43085799 0.48510289 14932449 -0.99877244 0.048281696 0.011070937 0.050157543
2.5254672 -0.41184404 0.48501721 15064036 -0.99634427 0.082014866 -0.023909764 0.057953101
2.525806 -0.3928301 0.4849315 14866659 -0.98937857 0.11824125 -0.084552646 0.053398345
2.5261447 -0.37381613 0.48484579 14735840 -0.99424791 -0.0025725677 -0.10707229 0.053331688
2.5264835 -0.35480225 0.48476008 14669277 -0.99442738 -0.10430831 -0.015296497 0.046755265
2.5268223 -0.33578831 0.48467436 14669020 -0.99453694 -0.076875612 -0.070615105 0.047262408
2.5089295 -0.3147985 0.48189518 14931937 -0.98170888 0.16597338 -0.093276836 0.036486838
2.5092659 -0.29592168 0.48181012 14735071 -0.97851396 0.16357 -0.12552005 0.037542053
2.5278387 -0.27874652 0.48441723 14603485 -0.98312008 0.10214958 -0.1517908 0.04240134
2.5281775 -0.25973257 0.48433152 14669277 -0.98247349 -0.020146556 -0.18531029 0.040952381
2.5102749 -0.23929127 0.48155484 14472152 -0.96766198 -0.13895763 -0.21052594 0.04255756
2.5106113 -0.22041446 0.48146975 14406106 -0.96066731 -0.069183551 -0.26894611 0.032600932
2.5109477 -0.20153764 0.48138466 14142934 -0.97276062 0.011240294 -0.23153959 0.030205049
2.5112841 -0.18266083 0.48129958 14076883 -0.99019802 -0.014737553 -0.13889097 0.024554715
2.5116203 -0.16378401 0.48121449 14076628 -0.99539953 -0.00050585758 -0.095810331 0.024127305
2.5119567 -0.14490721 0.48112941 14076630 -0.99306381 0.096318938 -0.067431457 0.032794721
2.5122931 -0.12603039 0.48104432 14142421 -0.99592787 0.073644333 0.052002423 0.023648005
2.5308878 -0.1076211 0.48364589 14010835 -0.99381971 0.096501529 -0.054861866 0.034798432
2.5129657 -0.088276766 0.48087415 13879504 -0.9767732 0.19546553 -0.087791666 0.041002586
2.5133021 -0.06939996 0.48078904 13878738 -0.97492105 -0.038754836 -0.2191509 0.085629344
2.5319042 -0.050579309 0.48338875 13747406 -0.94838661 -0.23700245 -0.21069556 0.098534591
2.5139747 -0.031646337 0.48061886 13550026 -0.87462473 -0.42098591 -0.24042135 0.063211896
2.5386798 0.32969931 0.48167464 12627895 -0.93863243 0.25569618 -0.23149225 0.054356422
2.5390186 0.34871325 0.48158893 12430518 -0.97692364 0.090827115 -0.19331487 0.067655213
2.5407126 0.44378293 0.48116037 12101551 -0.99882191 -0.0081924656 0.047829729 0.051716562
2.5427454 0.55786651 0.48064616 11509412 -0.98356938 0.0061805788 -0.18042469 0.071227387
2.5430841 0.57688051 0.48056045 11509412 -0.93795681 -0.16743645 -0.30364782 0.061469957
2.5451169 0.69096404 0.48004618 11179679 -0.89969742 0.11423956 -0.42130023 0.031015107
2.0535979 0.85144037 0.48187014 8940397 -0.21812934 -0.97540468 -0.031707928 0.02096325
1.7147688 0.86562538 0.48179588 6306339 -0.31142497 -0.94988328 0.02713386 0.048117813
1.7403011 0.86639112 0.48742005 7029797 0.0068205856 -0.99855256 0.053351123 0.0086945863
1.7648104 0.86673552 0.48001873 7358261 0.10832199 -0.99139726 0.073470548 0.0040997025
2.0538697 0.86669868 0.48180136 7951952 -0.21924233 -0.97514933 -0.031884752 0.020856684
1.6914555 0.87757134 0.48880464 4727828 -0.56063807 -0.78919959 -0.25069714 0.031786691
1.8098743 0.87667072 0.4895443 7489843 0.057035811 -0.99731261 0.045983467 0.0092385598
1.8649276 0.87774003 0.48772311 7621172 0.014818889 -0.99690253 0.077238627 0.0033634128
1.9137194 0.87417758 0.48387334 7555387 -0.014268545 -0.99913555 0.03904631 0.0032348053
1.9981033 0.87098092 0.48609272 7293248 -0.088833503 -0.99483001 0.049212821 0.012719573
1.6844579 0.88609278 0.48713735 5054742 -0.53463525 -0.78793246 -0.30549574 0.030654741
2.5320847 -1.0656412 0.49064878 14536919 -0.91619951 0.28067046 -0.28601152 0.04083151
2.5324259 -1.0464901 0.49056244 14734811 -0.94364905 0.17968571 -0.27791995 0.035947923
2.5327673 -1.0273391 0.4904761 14866399 -0.95930958 -0.02273499 -0.28143978 0.033219177
2.5331085 -1.0081881 0.49038979 14603484 -0.9568519 -0.19818254 -0.2125046 0.028223936
2.5341322 -0.95073503 0.49013081 14866910 -0.97785133 0.18831564 -0.091345899 0.047597531
2.5134251 -0.14484853 0.49995208 14142421 -0.9968124 0.018054953 0.077711828 0
2.5137615 -0.1259717 0.49986699 14010835 -0.99766982 0.051104888 0.045202069 0.012181018
2.5140977 -0.10709491 0.49978188 13945297 -0.99977654 0.020002564 -0.0068442449 0.022701278
2.5144341 -0.088218085 0.49969682 13879504 -0.98972547 0.044680234 -0.13582033 0.045603283
2.5147705 -0.06934128 0.49961171 13813199 -0.98419917 -0.1003081 -0.1459118 0.069167607
2.497164 -0.031669032 0.49662063 13550284 -0.92902207 -0.35282606 -0.11149804 0.044939645
2.4974978 -0.012929338 0.49653617 13813711 -0.954817 -0.26920632 -0.12590685 0.043855336
2.4978318 0.0058103567 0.49645168 13418440 -0.99423367 -0.0050460342 -0.10711687 0.023226539
2.4981656 0.02455005 0.49636719 13287367 -0.99839497 0.00017308924 -0.05663459 0.019992005
2.4984996 0.04328974 0.49628273 13286855 -0.99982685 0.01344026 0.012868784 0.013235949
2.4988334 0.062029425 0.49619827 13221062 -0.99680924 0.018214926 0.077714816 0.00086460105
2.4991674 0.080769122 0.49611381 13286855 -0.99679232 0.018178465 0.077939853 0.00086452306
2.4995012 0.099508822 0.49602932 13286084 -0.99680775 0.0182832 0.077718154 0.00086464483
2.4998353 0.11824851 0.49594486 12957889 -0.99679232 0.018178459 0.077939853 0.00086452306
2.500169 0.13698822 0.49586037 12957889 -0.99679214 0.018252758 0.077924915 0.0008644698
2.5005031 0.15572791 0.49577591 13023682 -0.99677688 0.018312437 0.078105778 0.00086445233
2.5008368 0.17446761 0.49569145 13088705 -0.98451352 0.1742558 -0.019185307 0.023097673
2.5011709 0.19320728 0.49560699 13022912 -0.96741235 0.2243145 -0.11745778 0.025000177
2.5198157 0.21381095 0.49833539 12891326 -0.95009589 0.099607199 -0.29562852 0.031255566
2.5201521 0.23268777 0.49825028 12628924 -0.94043529 0.018572465 -0.33946517 0.048033286
2.5021725 0.24942638 0.49535355 12563132 -0.95011234 -0.14211717 -0.27764952 0.043625008
2.5208247 0.27044141 0.4980801 12759740 -0.96212417 -0.12496749 -0.24228127 0.046123583
2.5028403 0.28690574 0.49518463 12825276 -0.97905189 0.18483923 -0.085392594 0.047561664
2.5031743 0.30564544 0.49510014 12627895 -0.97721851 0.17757639 -0.1162355 0.072186977
2.5218337 0.32707182 0.49782485 12562104 -0.95219088 0.26279822 -0.15578736 0.070353106
2.5038421 0.34312484 0.49493119 12496056 -0.96299434 0.191305 -0.18985327 0.067600347
2.5225065 0.36482546 0.49765468 12562104 -0.94799244 -0.17480595 -0.26599485 0.066423982
2.5228426 0.38370228 0.49756959 12430263 -0.98576385 0.0076430226 -0.16796215 0.085592046
2.5048437 0.39934391 0.49467781 12364723 -0.9909578 0.071443826 -0.11357143 0.062622808
2.524188 0.4592095 0.49722925 12298160 -0.99194992 -0.09993007 0.077777959 0.029762523
2.5245245 0.47808635 0.49714413 12232110 -0.9874649 -0.15473935 0.031127185 0.026805704
2.5248609 0.49696308 0.49705908 12034731 -0.99236655 0.0016729687 -0.12331179 0.037645537
2.5251973 0.51583987 0.49697396 11903402 -0.97343481 0.11484411 -0.1980796 0.059740622
2.5438855 0.53891164 0.49969134 11575207 -0.95545506 0.20777307 -0.20960912 0.046244361
2.5442243 0.55792558 0.49960563 11640230 -0.986211 -0.0014180824 -0.16548692 0.083934911
2.5262063 0.57247031 0.4967187 11706023 -0.92481631 -0.2705079 -0.26747006 0.060382996
2.5081828 0.58674079 0.49383309 11706277 -0.92024916 -0.19729334 -0.33795992 0.056472465
2.5268788 0.61022395 0.4965485 11443621 -0.94374287 0.0059262915 -0.33062723 0.058112834
2.5272152 0.62910074 0.49646345 11377058 -0.94201356 0.025805632 -0.33458117 0.056008413
2.5275517 0.64797759 0.49637833 11311265 -0.93468982 -0.045373943 -0.35255662 0.049220715
2.5095184 0.66169953 0.4934952 11179679 -0.90984708 -0.00093533669 -0.41494262 0.03809895
2.5282242 0.68573117 0.49620816 11179681 -0.8915742 0.085387938 -0.44475207 0.027014297
2.5285606 0.70460802 0.49612308 11048095 -0.87298924 0.24219534 -0.42335701 0.025432389
2.528897 0.72348475 0.49603799 10981789 -0.89429057 0.089974336 -0.43834808 0.052170787
2.5476122 0.74806494 0.49874854 10719898 -0.88726723 0.096162409 -0.4511205 0.051075947
2.5295696 0.7612384 0.49586782 10784923 -0.89045626 0.099186011 -0.44412816 0.055962771
2.529906 0.78011531 0.4957827 10784923 -0.8636685 -0.039432354 -0.50251561 0.043025985
2.5486286 0.8051067 0.49849144 10587542 -0.86932784 -0.16814207 -0.46475521 0.068587363
2.5305786 0.81786889 0.49561253 10455959 -0.85120851 -0.3623645 -0.37965256 0.074219964
2.5125234 0.83035672 0.49273497 10390165 -0.84590805 -0.43552038 -0.30783385 0.069243439
2.5312514 0.85562247 0.49544236 10258579 -0.98402673 -0.13558348 -0.11536288 0.076280586
1.676949 0.86919707 0.49770311 4859414 -0.51843905 -0.82552755 -0.22299169 0.027983015
1.6994823 0.86949652 0.49070266 4990228 -0.39226806 -0.90119886 -0.18429959 0.06134402
1.7075069 0.86129981 0.49260122 6634285 -0.19895925 -0.96993995 -0.14011337 0.047483973
1.7658267 0.86677611 0.49304581 7489847 0.12513666 -0.9900021 0.065090373 0.0030939223
2.0550566 0.86674613 0.49701598 8082519 -0.29103634 -0.95335066 -0.080127105 0.025491795
2.5131912 0.86783618 0.49256602 10192786 -0.99603838 0.050941322 -0.072887652 0.044692364
1.8374275 0.87717885 0.4954147 7686714 0.012566816 -0.9968493 0.078317769 0.0046877535
1.8842223 0.87341833 0.4917309 7819062 -0.039703164 -0.99792427 0.050704189 0.0020251907
1.9148233 0.87422168 0.49802455 7818808 0.00076110946 -0.9962045 0.087040544 0.0026015134
1.9453223 0.87500769 0.49014142 7819327 -0.0078113494 -0.99709648 0.07574705 0.0054104952
1.966642 0.87059599 0.49440989 7884354 0.0069665974 -0.9969722 0.077446468 0.0056491876
2.0317168 0.8713854 0.49251655 7819339 -0.27031013 -0.9622646 -0.031294491 0.025850266
1.6771697 0.88158351 0.49764726 4924185 -0.55129325 -0.78825301 -0.27337331 0.020509319
2.5135252 0.88657588 0.49248156 9930384 -0.98921299 0.09915483 -0.1078242 0.045834649
2.513859 0.90531552 0.4923971 9798798 -0.98795974 0.13541862 -0.074815623 0.04794509
2.5325968 0.93112975 0.49510202 9929101 -0.96723068 0.15867892 -0.1982065 0.051541798
2.532933 0.95000654 0.49501693 9797769 -0.95884597 0.0087449448 -0.28379205 0.043518245
2.5148606 0.96153468 0.49214366 9600649 -0.94915718 -0.073514737 -0.30609852 0.042279448
2.5151947 0.9802745 0.4920592 9599877 -0.94892091 -0.14865826 -0.27829826 0.043460593
2.5155284 0.99901396 0.49197474 9337218 -0.96280205 0.056382839 -0.26425985 0.042126644
2.5158625 1.0177538 0.49189028 8942719 -0.98280758 0.082295716 -0.16527788 0.062236305
2.5346148 1.0443906 0.4945915 9007736 -0.9910543 0.032575574 -0.12942289 0.052239917
2.4724553 -1.4184061 0.50287139 10850958 -0.99767125 -0.06703952 0.012561299 0.019014116
2.4727893 -1.3996664 0.50278693 10916497 -0.99978548 -0.012821722 0.016266691 0.021789609
2.4731231 -1.3809268 0.50270247 11048083 -0.99991035 0.01311715 -0.0026886314 0.022409178
2.4734571 -1.3621873 0.50261801 11114136 -0.99168193 0.11099386 -0.065172352 0.029532705
2.4737909 -1.3434474 0.50253356 11441561 -0.99838299 0.033663936 -0.045805279 0.021698637
2.4741249 -1.3247077 0.5024491 10394003 -0.98551536 0.13655972 -0.10055346 0.030805232
2.4744587 -1.305968 0.50236458 9862251 -0.95462996 0.27576271 -0.11241275 0.028983103
2.4929082 -1.2963341 0.50514245 11575459 -0.94798481 0.27757189 -0.15581612 0.027308537
2.4932444 -1.2774574 0.50505739 12298412 -0.97541672 0.13374345 -0.17514285 0.034464214
2.4935808 -1.2585804 0.50497228 12627375 -0.97810936 -0.055302046 -0.20060842 0.025930205
2.4757943 -1.2310092 0.50202674 12759730 -0.96003932 0.01601366 -0.27940682 0.029806538
2.4942536 -1.2208269 0.50480211 12891578 -0.94979447 0.11709739 -0.29013562 0.032961771
2.4945898 -1.2019501 0.50471699 13023930 -0.87610841 0.36823577 -0.31118569 0.038122993
2.4949262 -1.1830733 0.50463194 13286334 -0.89896131 0.33390644 -0.2835052 0.036560662
2.5133946 -1.1723421 0.50740492 13548995 -0.95206106 0.20821963 -0.22410813 0.044751324
2.5137334 -1.1533282 0.50731921 13944007 -0.97733617 0.065937653 -0.20116208 0.030298658
2.4959352 -1.1264428 0.50437665 13813450 -0.95647335 -0.052878071 -0.28698891 0.028717238
2.4962716 -1.1075661 0.50429159 13945036 -0.96203363 0.087096199 -0.25866115 0.039814718
2.496608 -1.0886892 0.50420648 14274001 -0.95592248 0.21209194 -0.20305008 0.055672474
2.5150886 -1.0772725 0.50697637 14273747 -0.9134416 0.35785383 -0.19381738 0.054443944
2.5154274 -1.0582585 0.50689065 14405333 -0.94402033 0.22536425 -0.24090812 0.059921239
2.5157661 -1.0392447 0.50680494 14669018 -0.94914675 0.048548844 -0.31106824 0.042377524
2.5161049 -1.0202308 0.50671923 14800606 -0.93434566 -0.097967543 -0.34263766 0.046718366
2.5164437 -1.0012168 0.50663352 14669278 -0.9680174 -0.12103399 -0.21975712 0.047745388
2.498626 -0.97542834 0.50369596 14669018 -0.99465364 0.055184491 -0.087286197 0.056658406
2.5171213 -0.96318901 0.50646216 14734813 -0.9962678 0.086297974 0.0017648488 0.040192507
2.5174601 -0.944175 0.50637645 14866397 -0.9977544 0.025279958 -0.06202542 0.049082976
2.5177989 -0.92516106 0.50629073 14866397 -0.97750485 -0.14140935 -0.15648545 0.047312208
2.5181377 -0.90614712 0.50620502 15195875 -0.97612107 -0.11980285 -0.18120427 0.041986931
2.5184765 -0.88713324 0.50611931 15261668 -0.97611886 -0.088386208 -0.19844365 0.042101141
2.5188153 -0.8681193 0.5060336 15393254 -0.97074986 -0.03242404 -0.23789367 0.049109012
2.5191541 -0.84910536 0.50594789 15393000 -0.95243955 -0.089157254 -0.29139304 0.026738882
2.5013168 -0.8244139 0.50301522 15261414 -0.96615422 -0.034350086 -0.25566787 0.024660496
2.5016532 -0.80553705 0.50293016 15327207 -0.97129214 -0.01885399 -0.23714159 0.025482308
2.5201705 -0.79206353 0.50569075 15261414 -0.97275853 -0.014845368 -0.23134521 0.022815257
2.5023258 -0.7677834 0.50275999 15261414 -0.98016769 -0.10287854 -0.16937321 0.025691498
2.5026622 -0.74890661 0.50267488 15327977 -0.98272896 -0.072354935 -0.17031917 0.028584907
2.5029984 -0.73002976 0.50258982 15524587 -0.99060649 0.0080785509 -0.13650475 0.024861608
2.5033348 -0.71115303 0.50250471 15458794 -0.99975938 -0.0023298543 -0.021811903 0.021389123
2.5036712 -0.69227618 0.50241965 15393770 -0.99875343 -0.020811787 0.045369998 0.01185009
2.5040076 -0.67339939 0.50233454 15458794 -0.99681163 0.018111296 0.077707984 0
2.5043437 -0.65452254 0.50224942 15327210 -0.99681163 0.018111296 0.077707984 0
2.5046802 -0.63564575 0.50216436 15327208 -0.99680275 0.018787494 0.077661864 0
2.5050166 -0.6167689 0.50207925 15393000 -0.99495703 0.081741236 0.058128614 0.011180803
2.505353 -0.59789211 0.50199419 15261415 -0.98171157 0.18991612 0.01320278 0.031659983
2.5056891 -0.57901525 0.50190908 15524587 -0.99964845 0.025086533 0.0085866386 0.043421917
2.5060256 -0.56013846 0.50182402 15262185 -0.99701083 -0.062788852 0.045023054 0.031667057
2.506362 -0.54126167 0.50173891 15196392 -0.9950648 -0.091859795 0.03752118 0.018098028
2.5066981 -0.52238488 0.50165385 15393001 -0.99681163 0.018111296 0.077707984 0
2.5070345 -0.50350803 0.50156873 15327208 -0.99681455 0.017885925 0.077723332 0
2.5073709 -0.48463115 0.50148362 15195622 -0.99555504 0.079765521 0.050076135 0.01124031
2.5077074 -0.46575433 0.50139856 15129829 -0.99739707 0.05248794 0.049438123 0.01232073
2.5080435 -0.44687751 0.50131345 14932450 -0.99824739 0.055252369 0.021198761 0.023800176
2.5083799 -0.42800075 0.50122839 15064036 -0.99968374 0.024318086 -0.0064068218 0.032787807
2.5087163 -0.40912393 0.50114328 15064036 -0.99783909 0.054536369 -0.036647506 0.039455101
2.5090528 -0.39024711 0.50105822 14866659 -0.99129099 0.082850173 -0.10236245 0.03712856
2.5093889 -0.37137029 0.50097311 14801634 -0.99347198 0.047090892 -0.10390316 0.038445506
2.5097253 -0.35249346 0.50088805 14800864 -0.99586344 -0.051097617 -0.075133845 0.033794783
2.5100617 -0.33361664 0.50080293 14668765 -0.99925703 -0.032176029 0.021216912 0.023087399
