# .PCD v0.7 - Point Cloud Data file format
VERSION 0.7
FIELDS x y z rgb normal_x normal_y normal_z curvature
SIZE 4 4 4 4 4 4 4 4
TYPE F F F U F F F F
COUNT 1 1 1 1 1 1 1 1
WIDTH 543
HEIGHT 1
VIEWPOINT 0 0 0 1 0 0 0
POINTS 543
DATA ascii
2.5236237 -0.8644557 0.18395796 4001049 -0.98813629 0.1513291 0.026194423 0.031857055
2.5396042 -0.85146576 0.18295285 4068386 -0.99792433 0.061606403 -0.01875669 0.039723769
2.5208547 -0.82919866 0.18138608 5714222 -0.99795771 -0.052644115 0.036180645 0.053662837
2.5194702 -0.81157011 0.18010011 7885393 -0.99456775 -0.070835777 -0.076271206 0.059020054
2.5384994 -0.80818832 0.18927544 3673351 -0.96174365 -0.22412875 -0.15752977 0.058198527
2.5205097 -0.78522867 0.18705252 4461837 -0.98494631 -0.1333084 -0.110044 0.067411721
2.5377288 -0.77079397 0.1867764 6304819 -0.9921211 -0.10244562 -0.072116122 0.067347668
2.537343 -0.75209683 0.18552691 7489869 -0.99807537 -0.0082231583 -0.061465714 0.077104904
2.519362 -0.72952461 0.18332985 8016215 -0.99716121 -0.059235696 -0.046483789 0.053068642
2.5365725 -0.71470243 0.18302786 9199711 -0.98976994 -0.12447385 0.069726162 0.078242972
2.5343809 -0.70777994 0.18934789 4066068 -0.9827767 -0.011477734 0.18444051 0.045461643
2.5361872 -0.69600523 0.18177834 9990767 -0.97273088 -0.14104211 0.18412435 0.074240677
2.5156667 -0.68649411 0.18773744 3409152 -0.97014081 -0.0099497596 0.24233839 0.053256363
2.5315926 -0.67228049 0.18675837 5121315 -0.96506637 0.029629746 0.26032493 0.05782428
2.5301986 -0.6545307 0.18546358 7226440 -0.955616 0.10096464 0.2767747 0.040199589
2.5092764 -0.64694721 0.18941174 4458529 -0.99805999 -0.060318761 0.015426956 0.072522692
2.5288045 -0.63678104 0.18416879 7160126 -0.97005349 0.065208241 0.23397444 0.038143329
2.5274105 -0.61903125 0.18287399 8475988 -0.98001379 -0.01355967 0.19846705 0.039384935
2.5260165 -0.60128158 0.1815792 9596261 -0.89520264 -0.089531615 0.43657354 0.029931691
2.5246224 -0.5835318 0.18028441 9795437 -0.94441628 -0.081486531 0.31849334 0.028669408
2.5243504 -0.57509422 0.18983284 4393752 -0.99549049 -0.094730854 -0.0049738064 0.035973512
2.5235281 -0.55623412 0.18955575 4196371 -0.9914853 -0.1120638 0.0663229 0.025246121
2.5193458 -0.54255176 0.18909425 4264460 -0.96513349 -0.24618803 -0.088931508 0.088961698
2.5227058 -0.53737414 0.18927868 4261651 -0.99255967 -0.0024011196 0.12173533 0.025653027
2.5189631 -0.52398378 0.18785337 6699315 -0.97804052 -0.20791186 0.014471427 0.074039362
2.5218835 -0.51851404 0.18900159 4131849 -0.98489153 0.17317255 9.9666417e-05 0.063622199
2.5185804 -0.5054158 0.18661249 8674901 -0.99639672 0.03198624 0.078552842 0.11873123
2.5181978 -0.48684782 0.18537158 8281171 -0.98804009 0.027343562 0.15175357 0.10907494
2.522187 -0.47534555 0.18926898 5447972 -0.90773785 -0.040654182 0.41756353 0.020597924
2.5354004 -0.47033697 0.18508381 10582904 -0.98492658 0.16661899 -0.046452403 0.11434174
2.53772 -0.46415126 0.18967965 3938065 -0.97525167 -0.10541034 -0.19435257 0.091891453
2.520793 -0.45759577 0.18797418 7621966 -0.90037555 -0.050463215 0.43217754 0.018366056
2.5350151 -0.45163977 0.18383431 10847359 -0.98701984 0.077556439 -0.14063008 0.096465692
2.5368917 -0.44515419 0.18940055 3871246 -0.93342286 -0.20173708 -0.29668835 0.078349486
2.5193989 -0.43984604 0.18667939 7886163 -0.86597705 -0.023835914 0.49951541 0.0099598011
2.5346298 -0.43294257 0.18258479 9664112 -0.96166474 -0.16383362 0.21990812 0.096809961
2.5177722 -0.42421383 0.18761617 3279117 -0.95740271 -0.18442333 -0.22218941 0.070413403
2.5352223 -0.42380267 0.18568215 7556680 -0.86610115 -0.027828364 0.49909362 0.0087627284
2.5166671 -0.4125759 0.18040806 9401451 -0.89976615 -0.17969806 0.39765495 0.10952497
2.5167804 -0.40485013 0.18571448 5516079 -0.99657977 0.055111125 0.061575029 0.047742143
2.5152168 -0.38659668 0.18279508 9003874 -0.83212531 -0.088624455 0.54746079 0.011604471
2.5344069 -0.38816306 0.18856327 3870720 -0.79258394 0.18000114 -0.58258927 0.071320951
2.5518522 -0.37069836 0.18978344 6435894 -0.75017607 -0.013385618 -0.66110265 0.044782199
2.5138228 -0.36884695 0.18150029 9993339 -0.81043887 -0.080233291 0.58030301 0.012227046
2.5124285 -0.35109723 0.18020549 9270394 -0.58654225 -0.018935006 0.80969733 0.014350052
2.551018 -0.35156429 0.18950234 7028291 -0.77740157 0.024185937 -0.62853944 0.042442478
2.5501838 -0.3324303 0.18922123 5449259 -0.85105669 0.0070723989 -0.52502626 0.047795948
2.5310938 -0.31217486 0.18744689 7689812 -0.91016132 -0.067505464 -0.40871692 0.045152299
2.5302658 -0.29317781 0.18716779 4792867 -0.9488911 -0.013690466 -0.31530663 0.043207061
2.5294375 -0.27418074 0.18688869 3279630 -0.99833953 -0.0015946233 -0.057581589 0.063976943
2.5174162 -0.262739 0.18865421 3671308 -0.9373095 -0.24071243 0.25200894 0.071784459
2.5286093 -0.2551837 0.18660961 3344910 -0.96574098 -0.19092903 0.17575702 0.080356799
2.4994535 -0.24367347 0.18643728 3869451 -0.89154065 -0.23122698 0.38947332 0.060467493
2.5453911 -0.24390681 0.18985733 4197903 -0.31110603 0.081344299 0.94688767 0.013582735
2.527781 -0.23618668 0.18633051 3082251 -0.92147422 -0.28391349 0.26510078 0.078757092
2.5166509 -0.22560307 0.18617243 4264975 -0.87473255 -0.10618438 0.47282976 0.040777218
2.5257523 -0.22552283 0.18820998 4198930 -0.301393 0.069912486 0.95093352 0.012939865
2.5087271 -0.21675327 0.18456827 3279883 -0.92410845 -0.33201399 0.18918347 0.084557399
2.4986935 -0.20679592 0.18397278 6765622 -0.8692953 0.0097631477 0.49419677 0.032430399
2.5243487 -0.20765184 0.18690637 3542542 -0.34720829 0.040962666 0.93689305 0.010712931
2.4896851 -0.19759387 0.18281007 3083274 -0.91614687 -0.33739483 0.21642464 0.086087711
2.4807417 -0.18824717 0.1817905 7621700 -0.83531404 -0.098097593 0.54095042 0.049547497
2.5229452 -0.18978091 0.18560275 4265226 -0.34579909 0.040918425 0.93741602 0.010793495
2.5044167 -0.17191195 0.18401101 6831414 -0.34720829 0.040962666 0.93689305 0.010712931
2.5155029 -0.16989912 0.18244979 8214097 -0.8477484 -0.075571351 0.5249874 0.060745273
2.5151203 -0.15133114 0.18120891 8280401 -0.8405152 0.01006355 0.54169452 0.076114625
2.520138 -0.15403898 0.18299547 7291965 -0.34720829 0.040962666 0.93689305 0.010712931
2.5187345 -0.13616802 0.18169186 8278860 -0.34720829 0.040962666 0.93689305 0.010712931
2.5173309 -0.11829706 0.18038824 8739928 -0.34720218 0.040955227 0.93689561 0.010712931
2.5154867 0.017073736 0.18821418 11840671 -0.97075218 0.070492022 -0.22950168 0.066273846
2.5151041 0.035641715 0.18697327 7569480 -0.9891113 0.054364853 -0.13675992 0.058287762
2.5143387 0.072777674 0.18449152 6182450 -0.95715517 -0.01943304 -0.28892267 0.041078504
2.5139561 0.091345653 0.18325061 8084821 -0.95009917 -0.065002538 -0.30510041 0.042875875
2.5139399 0.27831852 0.18901491 7952984 -0.99447966 0.024912408 0.10192984 0.022572603
2.5135572 0.2968865 0.187774 8479328 -0.98731327 -0.01769292 0.15779574 0.032039259
2.5131745 0.31545442 0.18653315 8084829 -0.98471797 -0.013437585 0.17363763 0.023675447
2.5127919 0.3340224 0.18529224 7887709 -0.99137914 -0.023926958 0.12882145 0.025840279
2.4948614 0.34893537 0.18309879 7953505 -0.98210806 -0.0097302571 0.18806648 0.017584845
2.5120265 0.37115842 0.18281049 7821919 -0.99182999 0.015131521 0.1266665 0.025212642
2.537358 0.37934005 0.18024093 8019046 -0.98916292 0.088705927 -0.11699556 0.019267114
2.5116439 0.3897264 0.18156958 7690849 -0.99199075 0.006137717 0.12616117 0.026990149
2.5112612 0.40829438 0.18032873 7888226 -0.99904519 0.042579263 -0.0097836107 0.018934648
2.5123928 0.5395633 0.18981576 7165532 -0.97927094 0.0015858706 0.20254867 0.018438496
2.4944651 0.55304593 0.18759084 7099741 -0.99098933 -0.01796844 0.13273022 0.041755181
2.5116274 0.5766992 0.187334 7166045 -0.99953496 -0.030494735 -0.00027793646 0.047895066
2.5287845 0.60061103 0.18705988 7100254 -0.99824554 0.049553622 -0.032408778 0.038420327
2.5100968 0.65097117 0.18237042 7427677 -0.99193561 -0.04170404 -0.11968527 0.04780703
2.5272434 0.67539978 0.18206179 7361884 -0.99462819 -0.058867648 0.085143648 0.047090106
1.6652352 0.78911793 0.18098645 5845549 -0.68459898 -0.72880894 -0.012721241 0.076737516
1.707993 0.78652126 0.18638366 6238248 -0.050767533 -0.99739993 0.051147431 0.0032496643
1.7353442 0.78798246 0.18980737 6566702 0.045146469 -0.99811149 0.041656766 0.003761736
2.4582353 0.78048593 0.18762189 6967128 -0.91767251 0.29353669 0.26779339 0.10351887
1.6658175 0.79608589 0.18098462 5386528 -0.21553981 -0.95749259 -0.19170445 0.035414319
1.6898867 0.79738432 0.18372044 6173472 0.065188088 -0.994286 -0.084533453 0.015627027
1.6905718 0.79019952 0.18416047 6500130 -0.31509459 -0.94359696 0.10168683 0.060232293
1.7704998 0.79357326 0.18075781 6435627 0.04420802 -0.99642175 0.07203728 0.0050843395
1.7988641 0.79466456 0.18410192 6698540 0.020573577 -0.9970904 0.073399849 0.0045059733
1.8145115 0.79501945 0.18568146 6764842 0.023915015 -0.99868286 0.045394652 0.0066733109
1.6450299 0.80801928 0.18941614 2954256 -0.28823772 -0.93572462 -0.20331872 0.034233771
1.6646773 0.80191195 0.18079849 3675156 -0.8837679 -0.46787122 -0.0071336776 0.10266449
1.7232836 0.80358505 0.18723312 5976095 0.083006464 -0.99617732 0.027215457 0.0041417116
1.741154 0.80066025 0.18951488 6041621 0.11832827 -0.99282104 0.017460175 0.0038670346
1.7729174 0.8056584 0.18035251 6305573 0.011368683 -0.99882334 0.047147088 0.0070678708
1.8011197 0.80768824 0.1833286 6437159 0.017694157 -0.99859768 0.049896497 0.011170483
1.848236 0.80561155 0.18865344 6699302 0.060724441 -0.99678391 0.05229073 0.019062283
1.8956113 0.80278069 0.18059951 6700078 0.070195064 -0.99748552 -0.0097632706 0.00861507
1.9346843 0.80725509 0.18479067 6830644 0.051037882 -0.99800378 -0.037195545 0.011605837
1.9592575 0.80612355 0.18695033 6831153 0.035144933 -0.99678791 -0.071963951 0.013808952
1.965529 0.80609792 0.18882079 7025971 -0.0013106904 -0.99171817 -0.12842664 0.0099162497
2.0360715 0.80911571 0.18118465 7160126 0.038998146 -0.98799312 -0.14949504 0.026518296
2.0615828 0.80508751 0.18386434 5254190 0.05127538 -0.99038243 -0.12850505 0.026113007
1.6641195 0.81470603 0.18061052 3413779 -0.99833977 0.029250568 -0.049621359 0.022242814
2.5104635 0.81937605 0.1893757 7296091 -0.87536538 -0.098729163 0.47327384 0.10849259
1.6635617 0.8275001 0.18042256 3281680 -0.99173081 0.087648414 -0.093743905 0.010599739
1.6719092 0.84563202 0.18130454 3019021 -0.98804641 0.12447336 -0.09094359 0.011054816
1.6713485 0.85849458 0.18111557 3150352 -0.99662977 0.052101802 -0.063360475 0.022913709
1.6707876 0.87135714 0.18092661 3019799 -0.99308783 -0.098733462 -0.063469492 0.022061853
1.6702268 0.88421977 0.18073763 2756876 -0.98963886 -0.084734596 -0.11591004 0.019282332
1.6696661 0.89708233 0.18054865 2821397 -0.99122125 -0.042735342 -0.12511618 0.026418811
1.6691053 0.90994489 0.18035969 2625290 -0.98951674 -0.045518145 -0.13705736 0.019835813
2.4796827 0.90398419 0.18853156 7626083 -0.65274519 -0.086697221 0.75260037 0.10808461
2.4967337 0.9307673 0.18975154 6903126 -0.96189457 -0.01841945 0.27279958 0.074841462
2.5086377 -1.4288912 0.19311425 3019294 -0.92888939 0.30778673 0.20599008 0.16873051
2.4884236 -1.351844 0.19558373 3478826 -0.76106381 0.62703371 -0.1661644 0.091541484
2.5051813 -1.3418138 0.196831 3282718 -0.83466023 0.50226218 -0.22599797 0.10018284
2.5219278 -1.3315247 0.19807453 3216424 -0.87617612 0.33716482 -0.34443489 0.09699785
2.5211172 -1.3129311 0.19780137 3742501 -0.94767976 0.16376929 -0.27401245 0.10430883
2.5203066 -1.2943374 0.1975282 3676710 -0.99426836 0.097391918 -0.044105187 0.095012672
2.5019612 -1.2679565 0.19574593 3874087 -0.93503886 0.13361841 -0.32840291 0.112102
2.5362144 -1.2648077 0.19848906 3940907 -0.95801324 0.09903761 -0.26907659 0.075628646
2.5086217 -1.2432194 0.19883844 4004131 -0.96460533 -0.045120236 -0.25980914 0.068361267
2.535398 -1.2460847 0.19821398 3743782 -0.91704994 0.34638491 -0.19757779 0.074684538
2.5643449 -1.2436481 0.19468483 3742766 -0.694188 -0.43087104 0.57658756 0.028551465
2.4906003 -1.2174079 0.19655204 3938858 -0.94005203 -0.059290644 -0.3358376 0.076825596
2.5170639 -1.2199627 0.19643553 4071466 -0.94297349 0.20816392 -0.25974753 0.087882489
2.5454259 -1.2187028 0.1930379 4005411 -0.66992873 -0.39143041 0.63085485 0.026467167
2.5078619 -1.2063417 0.19637394 3808294 -0.96416485 0.003267769 -0.26528388 0.12078263
2.5337653 -1.2086385 0.19766383 4070955 -0.95054126 0.19407377 -0.24250111 0.072487295
2.5251181 -1.1950172 0.19617873 4004649 -0.8013289 0.26932836 -0.53416699 0.15315123
2.5112011 -1.1878099 0.1911082 3809060 -0.60353988 -0.2324398 0.76270008 0.060019501
2.532949 -1.1899155 0.19738877 4333866 -0.9085964 0.38148123 -0.17007263 0.059927057
2.5262456 -1.1769271 0.19015244 3808545 -0.70637357 -0.10804415 0.69954485 0.05196384
2.5321326 -1.1711924 0.19711369 3939618 -0.95983821 0.23306642 -0.15617527 0.025889849
2.5071018 -1.1694641 0.19390944 4069415 -0.83407009 0.40249029 -0.37726483 0.15195374
2.5419836 -1.1647372 0.1947166 3807781 -0.93855643 0.23972969 0.24827707 0.1567342
2.5498409 -1.1597558 0.1984224 4202278 -0.92984211 0.29206151 -0.22381651 0.063557528
2.5453086 -1.1434679 0.19580621 4070188 -0.99495465 0.064861223 0.07654006 0.10173617
2.5235875 -1.1207453 0.19121519 4462882 -0.90301085 0.22890587 -0.36355677 0.18755496
2.5296838 -1.1150234 0.19628848 4463919 -0.97431284 -0.1946525 -0.11324698 0.029978415
2.5408275 -1.1086456 0.19096804 4067606 -0.97920269 0.16266276 -0.12125561 0.14326827
2.5288675 -1.0963005 0.19601342 4596270 -0.9895637 -0.093985207 -0.1092267 0.050430514
2.5590992 -1.0966603 0.19076166 3870745 -0.92879075 0.12906721 -0.34740379 0.084205069
2.5088134 -1.0817478 0.19991645 4136497 -0.94909912 -0.025084162 0.31397733 0.06837634
2.5280511 -1.0775774 0.19573835 4334387 -0.99591732 0.052603506 -0.073358819 0.056572217
2.5074468 -1.0643464 0.19864711 4463152 -0.98704422 -0.012756226 0.15994082 0.045380253
2.5457296 -1.0654557 0.19703698 4268336 -0.98097575 0.14958523 -0.12373691 0.069853485
2.5224669 -1.0526574 0.19774058 4726573 -0.97756422 0.013674743 0.21019326 0.04250114
2.5449073 -1.0465956 0.19675989 4399918 -0.98064792 0.15410042 -0.1207592 0.080113016
2.5210912 -1.0351424 0.1964629 4464169 -0.98605871 -0.060144782 0.15514767 0.06144125
2.544085 -1.0277355 0.19648282 4663344 -0.99003398 0.040519517 -0.13487396 0.056385063
2.5033467 -1.0121427 0.19483897 4989749 -0.99592859 -0.088546634 -0.016909212 0.074023791
2.5617392 -1.0150657 0.19777343 4859442 -0.99224073 0.017465034 -0.12309901 0.050582729
2.5019801 -0.99474126 0.19356963 4596009 -0.97764927 -0.13734515 -0.15918015 0.069529407
2.5424404 -0.99001539 0.19592865 4990515 -0.9992736 -0.037488755 -0.0068436265 0.036348034
2.5169644 -0.98259759 0.19262996 4398127 -0.9544487 -0.11080869 -0.27703652 0.052643143
2.5416181 -0.97115535 0.19565158 4727856 -0.99180466 -0.11316973 0.059297152 0.021882208
2.5155888 -0.96508288 0.19135234 4332583 -0.92638719 -0.061064396 -0.3715885 0.10978025
2.5411887 -0.95503062 0.19732304 4596268 -0.99021709 -0.12546183 0.061068814 0.023608476
2.523571 -0.9337725 0.19697958 4398378 -0.99952888 0.015931632 0.026234195 0.080800861
2.5399735 -0.9334352 0.1950974 4858159 -0.99400043 -0.091922604 0.059273876 0.0098249568
2.5408111 -0.92037147 0.19677258 4726065 -0.98194343 0.0092504052 0.18894856 0.056889229
2.5391514 -0.91457522 0.19482033 4594989 -0.98606318 -0.14785121 0.076285273 0.01531514
2.5404258 -0.90167433 0.19552305 4857640 -0.98704708 0.12046559 0.10595322 0.059503775
2.5383291 -0.89571518 0.19454324 4594726 -0.9640308 -0.26172933 -0.04628529 0.020399379
2.5400405 -0.88297719 0.19427353 4921385 -0.99821317 -0.050539229 0.031879857 0.055730641
2.5190718 -0.87162381 0.19271258 4923946 -0.99208319 -0.10742472 -0.065045998 0.043405268
2.5396552 -0.86427999 0.19302401 4658205 -0.99489528 -0.090096153 -0.045453805 0.068696365
2.5182557 -0.85290074 0.19243751 4267293 -0.99861687 -0.0091892993 -0.051767781 0.053398512
2.5281277 -0.84515101 0.19931093 4594468 -0.99916446 -0.037145209 -0.017047495 0.054965816
2.5392699 -0.84558278 0.19177449 4328987 -0.98203748 -0.10589656 -0.15616772 0.049063455
2.5358622 -0.83913499 0.193712 4528172 -0.99732745 0.072891764 -0.004978545 0.055132482
2.5267432 -0.82752246 0.19802502 4528933 -0.98591226 -0.14951673 -0.074978806 0.061122369
2.5388846 -0.82688552 0.19052497 4725025 -0.97574109 -0.17832881 -0.12699701 0.058836978
2.516623 -0.81545466 0.19188736 4461588 -0.99622309 -0.074618727 0.044402674 0.062956057
2.5090585 -0.80578333 0.196385 4069665 -0.99418533 -0.099632204 -0.04085419 0.049089517
2.5158067 -0.79673165 0.1916123 4919835 -0.95646489 -0.21677795 0.19540305 0.063302733
2.5239739 -0.7922653 0.19545314 4397341 -0.99904823 -0.011335015 -0.042120159 0.048068773
2.5333953 -0.78255486 0.19288075 4590100 -0.99819708 -0.031475455 0.051105954 0.06503927
2.5225894 -0.77463686 0.19416717 4592923 -0.99463832 0.10339531 -0.0020211043 0.048567753
2.5325732 -0.76369482 0.19260366 4590100 -0.99625534 0.07833197 -0.036598124 0.044704732
2.5212049 -0.75700825 0.1928812 4394779 -0.99240756 0.013269976 0.12227516 0.029854385
2.5317509 -0.74483472 0.19232658 4261651 -0.99982142 -0.012597343 -0.014090344 0.053420648
2.5198205 -0.73937976 0.19159529 4000271 -0.98442119 0.14547834 0.09874694 0.037493188
2.518436 -0.72175115 0.19030932 3933715 -0.98113722 0.01257306 0.19290353 0.048153557
2.5309286 -0.72597468 0.1920495 4525075 -0.99300849 -0.10022779 0.062359355 0.053199671
2.5301063 -0.70711464 0.19177242 4853272 -0.99989766 -0.0030671903 0.013973519 0.05631591
2.5224068 -0.69109559 0.19902131 4923693 -0.97479922 -0.15642434 0.15905324 0.086809196
2.529284 -0.68825454 0.19149533 4524558 -0.99984801 -0.0046504308 -0.016803108 0.091411456
2.5220242 -0.67252761 0.19778043 5119785 -0.98081517 -0.19323713 -0.025711389 0.061149761
2.5284617 -0.66939455 0.19121826 5050138 -0.99867463 -0.034528572 0.038168751 0.093360931
2.5216415 -0.65395963 0.19653955 4920874 -0.98575389 0.16783082 -0.01105252 0.083352774
2.5240378 -0.63353306 0.19298138 4459549 -0.99381721 0.098424852 -0.051380724 0.052394718
2.525995 -0.61281437 0.190387 4196369 -0.98830271 0.044441856 -0.14588551 0.054927986
2.5359111 -0.61862898 0.19735362 4658466 -0.98163569 0.073862858 0.17588538 0.052437328
2.5380976 -0.60121727 0.19383046 4788506 -0.99817091 0.047953099 -0.036814928 0.062474918
2.5251727 -0.59395432 0.19010992 4459282 -0.99786979 0.0055375365 -0.0650023 0.028159568
2.5319455 -0.59959382 0.19833246 4856609 -0.96730512 -0.11020412 0.22842051 0.030327419
2.5305514 -0.58184403 0.19703767 4922139 -0.94394058 -0.081055477 0.32000965 0.028687153
2.5201108 -0.57968771 0.191576 4197652 -0.95579112 -0.22176865 -0.19308585 0.055182576
2.5118635 -0.56141812 0.19537476 4657438 -0.97477961 0.019006021 0.22235903 0.037204456
2.5373271 -0.56382287 0.19133142 4067347 -0.98016888 -0.13912809 -0.14111134 0.067041449
2.5277634 -0.54634452 0.19444814 4393748 -0.96125859 0.043200321 0.27224192 0.035785988
2.5263693 -0.52859473 0.19315335 4459281 -0.9489122 0.03948025 0.31306079 0.030032897
2.5249751 -0.51084501 0.19185856 4393991 -0.87075579 -0.0056174845 0.49168372 0.030079374
2.5393765 -0.50214535 0.19023785 5121816 -0.96957266 0.24403453 0.019391967 0.061618153
2.523581 -0.49309528 0.19056377 5974817 -0.90435916 -0.037147861 0.42515239 0.024061583
2.5568576 -0.48550257 0.1914701 3674890 -0.95806599 0.20803854 -0.19705236 0.0661394
2.5204775 -0.41128284 0.19858128 4592408 -0.96799338 -0.24708056 0.044045597 0.11026172
2.5024934 -0.39118361 0.19629526 4393491 -0.91445577 -0.26042315 0.30975863 0.10248444
2.5211456 -0.38490897 0.19954845 4987421 -0.80832589 -0.082286283 0.58295649 0.011088341
2.484515 -0.37134281 0.19402662 4261905 -0.98877484 0.0068210396 0.14925785 0.16289307
2.5197515 -0.36715919 0.19825366 4458514 -0.62699324 -0.015989309 0.77886069 0.014776457
2.5017333 -0.3543061 0.19383079 3605768 -0.93129027 0.35564128 -0.078852765 0.1327076
2.5183573 -0.34940946 0.19695887 4130317 -0.58032781 -0.00071859738 0.81438267 0.014743313
2.5169632 -0.33165973 0.19566408 3999760 -0.41803807 0.079517901 0.90494263 0.014364003
2.53654 -0.33815461 0.19463688 3868677 -0.96525764 0.18568674 -0.18384275 0.064658724
2.4983683 -0.31294233 0.19401047 4528400 -0.35958979 0.084801063 0.92924911 0.013262032
2.5361547 -0.31945741 0.19338736 9197912 -0.9588666 0.2511293 -0.13232128 0.069768198
2.5161784 -0.29801762 0.19210523 5516585 -0.81194603 0.051681165 0.58144015 0.062983349
2.5353842 -0.28206301 0.19088835 3410446 -0.95875978 -0.13702235 0.24900724 0.099108376
2.529963 -0.2791357 0.19212088 3933967 -0.3833918 0.083556309 0.91979843 0.010330537
2.5468049 -0.2619065 0.19117036 3671056 -0.30096993 0.072627947 0.95086396 0.014646247
2.5189307 -0.15003812 0.19938213 3935771 -0.96668595 -0.034752581 0.25359523 0.072165728
2.5009573 -0.13175678 0.19709054 3606804 -0.84009808 -0.1179318 0.52945954 0.10460152
2.5181653 -0.11290215 0.19690037 3410443 -0.90180969 0.0010101581 0.4321323 0.074840464
2.5177827 -0.094334163 0.19565946 3539971 -0.87481844 -0.088521212 0.47629488 0.085574098
2.5170174 -0.057198197 0.1931777 3146502 -0.88087964 -0.13481969 -0.45373431 0.062117059
2.5342119 -0.037697524 0.19294417 3014656 -0.84549606 -0.066044107 -0.52988183 0.056695361
2.5338264 -0.019000337 0.19169468 11112071 -0.90202254 0.059858907 -0.42751878 0.061831914
2.5170012 0.12977464 0.19894195 3475210 -0.99182498 -0.10479755 -0.07280653 0.04389878
2.4990413 0.14610885 0.19665354 3474439 -0.99253297 -0.066932328 -0.10197278 0.041595291
2.4986613 0.16454761 0.19542128 3212038 -0.98698628 0.057242859 -0.15027092 0.05963942
2.5158532 0.18547858 0.19521934 3080451 -0.95536798 0.12586358 0.2672646 0.080965698
2.5330396 0.20666794 0.19500011 3211533 -0.99156392 0.12961781 -0.00056615478 0.0426406
2.5150878 0.22261457 0.19273752 4003101 -0.99083805 0.067259863 0.11711609 0.08938729
2.5147052 0.24118255 0.19149667 6045236 -0.98749125 -0.03929333 0.15269949 0.094075575
2.5078433 0.25808457 0.1980208 3080964 -0.93612069 0.35110781 -0.020037122 0.024404991
2.5143225 0.25975055 0.19025576 7030601 -0.99547136 -0.089909285 -0.030873939 0.033452723
2.5250971 0.28020975 0.19930921 3080711 -0.95078105 0.29833978 -0.08371906 0.026304197
2.5242629 0.29934379 0.1990281 3146245 -0.96825904 0.24876146 -0.024337478 0.029863318
2.5234287 0.31847784 0.19874699 3080452 -0.99188322 0.12711014 0.0032740384 0.02456243
2.5225945 0.33761188 0.19846588 3014918 -0.99349409 0.10460444 -0.045027159 0.020166809
2.5217602 0.35674599 0.19818477 2753286 -0.9990868 0.033005334 -0.027133355 0.017063951
2.520926 0.37587997 0.19790368 2557187 -0.99566317 0.033977188 -0.086605288 0.019993532
2.5154541 0.39101946 0.19974279 4003622 -0.99489981 0.046691164 0.089411624 0.032535143
2.5200918 0.39501405 0.19762257 2755334 -0.98451573 0.057122964 -0.16572809 0.021985538
2.5150714 0.40958744 0.19850194 5056823 -0.99704778 0.063428722 0.043274537 0.022588911
2.5192575 0.41414815 0.19734146 2821130 -0.96959084 0.031167576 -0.24273905 0.01862403
2.5146887 0.42815536 0.19726104 5914699 -0.9970277 0.0076248292 -0.076665983 0.03907752
2.5364573 0.4375062 0.19861165 4991794 -0.96287662 -0.00093405088 -0.26994038 0.022327028
2.5143061 0.44672334 0.19602019 6375242 -0.99708325 0.016204908 -0.074582234 0.037105598
2.5356171 0.45677727 0.19832852 6043965 -0.97309798 -0.085617788 -0.21389228 0.030624704
2.5139234 0.46529132 0.19477928 7426899 -0.99881041 -0.022651015 -0.043183446 0.032332871
2.5347769 0.47604829 0.1980454 5649977 -0.98747385 -0.1446404 -0.063044071 0.073004238
2.5135407 0.48385936 0.19353837 7165016 -0.99692011 -0.0041584941 -0.078313902 0.028001076
2.5159206 0.49068427 0.19621703 6439491 -0.99786961 -0.046282094 -0.045982286 0.079805672
2.5131581 0.50242734 0.19229752 7493470 -0.99925321 -0.033135779 -0.019877657 0.040662851
2.5330966 0.51459044 0.19747916 6505538 -0.99735022 0.0067366571 0.072438128 0.07594578
2.5127754 0.52099532 0.19105661 7296855 -0.99505937 -0.021322018 0.09696494 0.023505762
2.5322564 0.53386146 0.19719605 6571330 -0.97856474 0.030553885 0.20366049 0.067973256
2.5314162 0.55313247 0.19691293 6834502 -0.9992249 0.02947204 0.026099253 0.055478863
2.5125837 0.56722045 0.19509259 6769222 -0.92752987 -0.007181223 0.37368014 0.098553397
2.5297358 0.59167463 0.19634669 7361108 -0.9752534 0.012625572 0.22072965 0.031608477
2.5288956 0.61094564 0.19606356 7229779 -0.97256625 -0.0098008849 0.23241957 0.027978141
2.5280554 0.63021672 0.19578044 7624278 -0.99525595 -0.043987263 0.086779982 0.032753095
2.5272152 0.64948773 0.19549732 7426897 -0.99878871 0.048906274 -0.0054149926 0.039244924
2.5263751 0.66875875 0.1952142 7229520 -0.97342831 0.13545652 -0.18463197 0.023193032
2.5135248 0.67083222 0.19930279 7032149 -0.99867076 -0.019018779 -0.04790704 0.049088228
2.5131421 0.68940014 0.19806188 7361882 -0.96064317 -0.16028963 0.22687443 0.12401326
2.5444889 0.69436848 0.19654097 7098444 -0.98363477 0.078558907 -0.16214535 0.025193768
2.459734 0.70776451 0.19248182 6640214 -0.93743545 -0.25758851 0.23422861 0.13744438
2.4952092 0.70184016 0.19577962 7230809 -0.9884941 -0.15072849 0.012664586 0.15110785
2.5436425 0.7137841 0.19625573 6441031 -0.97463989 0.072558261 -0.21168944 0.023933848
2.4944491 0.73871768 0.19331509 6705748 -0.91018015 -0.12268268 0.39562744 0.17199127
2.5427959 0.73319978 0.19597048 6704213 -0.97403622 -0.048977345 -0.22103083 0.041269559
2.5419495 0.75261545 0.19568524 6836567 -0.98710096 -0.15157622 -0.051540948 0.050723813
2.5116115 0.76367205 0.19309837 6967387 -0.93798864 0.042873506 0.34400469 0.11704384
2.4936891 0.77559519 0.19085062 7230046 -0.92387849 0.13058935 0.35971516 0.11188676
2.5411029 0.77203107 0.19539998 6901333 -0.97137314 -0.18601555 0.14775814 0.047429431
1.652788 0.78795332 0.19166851 5648673 -0.24497357 -0.95045769 -0.19135851 0.040283736
1.6768907 0.78937793 0.1945678 6106399 -0.14463848 -0.98114985 -0.12815878 0.030031141
2.5213339 0.78438503 0.19351548 7032919 -0.96798187 -0.23813593 -0.079387888 0.035657883
1.6452799 0.7958889 0.19022679 3282702 -0.27492926 -0.94177294 -0.1935914 0.036092333
1.6752335 0.7944172 0.19488895 5845547 -0.46568617 -0.88408935 0.039018959 0.085132718
1.6916633 0.79043734 0.1971105 6501151 -0.28288558 -0.95914996 -0.0026679188 0.061320197
1.7716424 0.79382229 0.19431509 6764333 0.0588709 -0.99819088 0.01221652 0.0038169438
1.8000246 0.79491746 0.19787176 6698540 0.022233833 -0.9989925 0.038983159 0.0040923925
1.8586261 0.79709619 0.19114649 6895667 0.072829232 -0.99620473 0.047665868 0.0052923439
2.0135391 0.7980969 0.19422174 6698289 -0.0060593048 -0.99480635 -0.10160585 0.01590739
1.6657526 0.80214632 0.19355871 3871765 -0.93396771 -0.35662305 -0.02290024 0.10149743
1.7258931 0.80447054 0.19967839 6172958 0.12297558 -0.99239498 -0.0054055867 0.0043582572
1.7673173 0.80202365 0.19249177 6435615 0.055725478 -0.99734819 0.046810832 0.0041545234
1.7945243 0.80356789 0.19557935 6501412 -0.023064736 -0.99944168 0.024173401 0.010074975
1.8134494 0.80029184 0.19800732 6371115 -0.001592029 -0.99826366 -0.058882598 0.0093466919
1.8785322 0.80755335 0.19186589 6568240 0.019537853 -0.99924517 -0.033577193 0.0056339609
1.8984859 0.80375618 0.19430941 6502697 0.076502509 -0.9970628 0.0036256909 0.0086670602
1.9009469 0.80390853 0.19608657 7027764 0.10526531 -0.99438006 -0.011292262 0.006204735
1.9333638 0.80514169 0.19990867 6895665 -0.0030752085 -0.99088097 -0.13470548 0.004917806
1.9890294 0.80203688 0.19146591 6763828 -0.0062968675 -0.98961049 -0.14363652 0.01329599
2.0157022 0.80411977 0.19290397 6632753 0.040899999 -0.99041998 -0.13189176 0.018581333
2.5204937 0.80365604 0.19323236 6967637 -0.978939 -0.20415179 -0.00063508743 0.037658822
1.6651949 0.81494039 0.19337074 3282453 -0.99940151 -0.012705931 -0.032174654 0.021544874
1.9401873 0.81063658 0.19845951 6437159 0.050090138 -0.99851519 -0.021410996 0.014509812
2.0040207 0.81343037 0.19109625 6698799 0.081164137 -0.9621529 -0.26014256 0.041063081
1.6646371 0.82773447 0.19318278 3478030 -0.99486047 0.079881005 -0.062223349 0.012660291
2.5196533 0.82292712 0.19294924 7032917 -0.98899871 -0.14719218 0.014696807 0.031340256
1.6640793 0.84052855 0.19299482 2953485 -0.99215078 0.11141601 -0.056773894 0.011901812
2.5188131 0.84219819 0.19266611 7230811 -0.99699438 0.073606037 -0.024171781 0.023402516
1.6635214 0.85332268 0.19280685 3019278 -0.99544442 0.061151583 -0.073150001 0.019696686
2.5179729 0.86146921 0.19238299 7361884 -0.98893899 -0.062972069 0.13429141 0.08456932
1.6624058 0.87891084 0.19243093 3019021 -0.98515165 -0.13829207 -0.10174267 0.019583363
1.6718687 0.8715927 0.19375513 2953226 -0.99353564 -0.056357522 -0.098543614 0.023573922
2.5360239 0.88852501 0.19368851 7559261 -0.95982486 -0.1227384 0.25233233 0.07874532
1.6618481 0.89170492 0.19224297 2624521 -0.986687 -0.06572073 -0.1487601 0.020440741
2.4252858 0.89409167 0.19484484 6242376 -0.51115459 0.05634867 0.85763967 0.13540056
1.6612903 0.90449893 0.19205499 2821391 -0.98048592 -0.11147163 -0.1619304 0.021642841
2.476511 0.93501168 0.19675153 6572366 -0.68012863 0.042122796 0.73188168 0.14265111
2.513772 0.95782447 0.19096738 7428441 -0.97584736 0.059111923 0.21030414 0.047191747
2.5129318 0.97709548 0.19068427 7558487 -0.99873716 -0.040430617 -0.029823914 0.036723852
2.5120916 0.9963665 0.19040115 7492951 -0.99953359 -0.030410733 -0.0027867332 0.038719282
2.4943736 -1.4005035 0.20878819 2953501 -0.9631381 0.24971418 -0.10003957 0.1038866
2.4939964 -1.382194 0.20756456 3216409 -0.97387922 0.19728136 -0.11242483 0.10693058
2.5112817 -1.3722906 0.20746419 3413025 -0.9910661 0.12960739 -0.031464238 0.11034865
2.5285621 -1.3621291 0.20734668 3085341 -0.97013515 0.045333732 -0.23829116 0.070481829
2.4928644 -1.3272653 0.20389372 3347745 -0.99558991 -0.056043234 -0.075233057 0.1275284
2.5101418 -1.3169744 0.20376742 3544860 -0.92933834 -0.069024853 -0.36272019 0.058275212
2.5097618 -1.2985356 0.20253518 3546149 -0.94465244 0.1762497 -0.27670878 0.052590054
2.5093818 -1.2800968 0.20130295 3283747 -0.97839224 0.049364235 -0.20077823 0.055345029
2.5266488 -1.2692893 0.20114225 3611683 -0.97153723 0.066850238 -0.22725876 0.052036893
2.5513144 -1.2170266 0.20967677 3743522 -0.71509111 -0.41561919 0.56205469 0.022605279
2.5334718 -1.1927766 0.20796177 3547171 -0.68008786 -0.26125702 0.68500018 0.039031882
2.5156469 -1.1687541 0.20626327 3480097 -0.74089068 -0.015089274 0.67145616 0.043910015
2.5142803 -1.1513528 0.20499393 3939880 -0.8280164 -0.047790039 0.55866355 0.059022713
2.5129135 -1.1339514 0.20372453 4333100 -0.81305742 -0.10405434 0.57280916 0.054081153
2.5115469 -1.1165502 0.20245513 4135467 -0.88963813 -0.16023928 0.42763001 0.060657639
2.5273976 -1.1194524 0.20938841 4398126 -0.98090839 -0.17327747 -0.088281579 0.14181207
2.5446644 -1.1073434 0.20926774 4398891 -0.91552693 0.2055067 -0.34579989 0.10349089
2.5101802 -1.099149 0.20118579 4202028 -0.91940731 -0.13527289 0.36931223 0.071008563
2.5442791 -1.0886463 0.20801824 4332333 -0.84152979 0.30497956 -0.44588697 0.058376577
2.5438938 -1.069949 0.20676869 4464423 -0.94999105 0.12639758 -0.28555346 0.086034492
2.5435085 -1.0512519 0.2055192 4594478 -0.99278885 0.032579195 -0.11536449 0.05339808
2.5431232 -1.0325546 0.20426968 4791855 -0.99516517 0.091065481 -0.03678805 0.036200773
2.542738 -1.0138575 0.20302016 4596008 -0.99815142 0.049076241 -0.035851333 0.03335809
2.5423522 -0.99516034 0.20177063 4857898 -0.99598283 -0.087012097 -0.021145582 0.024075963
2.4903016 -0.98736888 0.20951918 4923693 -0.93338311 -0.23068208 -0.2749216 0.058673315
2.5064261 -0.97568548 0.20872471 4923695 -0.92741448 -0.25432569 -0.27426425 0.060803827
2.5419669 -0.97646308 0.20052111 4530216 -0.98107481 -0.19134037 0.029685035 0.031805553
2.487587 -0.95280868 0.20699808 4792366 -0.96647352 -0.20515162 -0.1544079 0.15804274
2.4862299 -0.93552864 0.20573756 4398889 -0.9013862 0.43050435 0.046571225 0.18693899
2.518688 -0.92838764 0.20532855 4594987 -0.8459543 0.44614065 -0.29209563 0.065365046
2.5173123 -0.91087276 0.20405093 4660519 -0.89102179 0.42072511 -0.17050096 0.058678389
2.5159366 -0.89335781 0.2027733 4660010 -0.9896881 0.14323604 -0.0010495782 0.036964409
2.5145609 -0.87584293 0.20149562 4791596 -0.97803253 0.20834126 -0.0068076854 0.039287739
2.5131855 -0.85832804 0.20021799 4659758 -0.99973488 0.020593598 -0.010302305 0.045317423
2.5250854 -0.82107157 0.20770749 4792358 -0.98235494 -0.18086529 -0.047607973 0.048618924
2.5247028 -0.80250359 0.20646662 4659492 -0.97432554 -0.20085248 0.10172552 0.037764072
2.5419509 -0.78818917 0.20632565 4987946 -0.99643552 0.0061157392 -0.08413624 0.051787484
2.5239375 -0.76536757 0.20398486 4790828 -0.99046552 -0.1375501 -0.0076231509 0.07006301
2.5270934 -0.75533205 0.20952007 4593699 -0.99245095 0.013174003 0.1219326 0.029306624
2.5059295 -0.74280435 0.20166126 4660261 -0.99917793 0.039987452 0.0066673905 0.050089557
2.5257089 -0.73770356 0.20823416 4396322 -0.98444188 0.14548221 0.098534763 0.037447799
2.5237484 -0.72415328 0.20422563 4791333 -0.99309987 -0.0089509059 0.11692964 0.063156843
2.5404096 -0.71340042 0.20132756 4658981 -0.99158055 -0.030029334 0.12596175 0.073019572
2.5403099 -0.70609218 0.20610115 4988199 -0.9843998 -0.03738147 0.17192943 0.045528769
2.5215552 -0.68481791 0.20437631 4790826 -0.97006804 -0.010311884 0.24261425 0.053733546
2.5201707 -0.66718942 0.2030904 5120310 -0.95488763 0.063347071 0.2901324 0.051020924
2.5361276 -0.65284294 0.20221683 4791095 -0.95759302 0.091938473 0.27306238 0.038561773
2.5108502 -0.64660424 0.20808525 4922155 -0.99236089 -0.099039704 0.073560387 0.050281446
2.5347335 -0.63509327 0.20092204 4791080 -0.9798286 0.061315052 0.19020112 0.036290154
2.5100338 -0.62788117 0.20781018 4856619 -0.99169099 -0.056057312 0.11578716 0.043764137
2.5275805 -0.6124689 0.20919718 4856873 -0.99712873 0.018749382 0.073367827 0.034792434
2.5267582 -0.59360886 0.20892011 4855844 -0.99844867 0.0034821862 0.055572242 0.023105957
2.5249286 -0.5765717 0.20919612 4921895 -0.98816264 -0.15173702 0.022594538 0.026900312
2.5243263 -0.55785769 0.20843714 4922410 -0.99599248 -0.07564722 -0.047713876 0.0512724
2.5055332 -0.53869379 0.20615327 5120035 -0.98763567 -0.15252484 0.036222089 0.065936819
2.5242913 -0.53702867 0.20808886 4658981 -0.9992041 0.038236566 -0.011361353 0.021127654
2.5051532 -0.52025503 0.20492101 4922404 -0.98660427 -0.12574723 0.10392165 0.066744179
2.5322981 -0.52690697 0.20990673 4528422 -0.94940239 0.039387338 0.31158271 0.030371469
2.523469 -0.51816857 0.20781177 4658464 -0.9928205 0.013082713 0.11889666 0.02589047
2.5047736 -0.50181633 0.20368877 4856871 -0.98663849 0.16073175 0.026642593 0.10850163
2.5309038 -0.50915724 0.20861194 4791331 -0.87138778 -0.0056686536 0.49056223 0.030135356
2.5260782 -0.49535805 0.20742592 4593440 -0.98397088 0.064177632 0.16638069 0.039247319
2.5219164 -0.48300165 0.20540121 4790310 -0.97780508 0.12900463 -0.16509089 0.082927085
2.5281157 -0.47365779 0.20602235 4791077 -0.91532087 -0.041453656 0.40058631 0.020807443
2.5392771 -0.46641913 0.20600496 4658977 -0.94167656 0.050644442 -0.3326866 0.065286368
2.5267217 -0.455908 0.20472756 4791078 -0.90760332 -0.048498783 0.41701809 0.018611608
2.5207114 -0.4455736 0.20388323 4724770 -0.98437274 -0.07171312 -0.16083378 0.079529151
2.5253277 -0.43815827 0.20343277 4660513 -0.86670417 -0.023900302 0.49824959 0.0099944482
2.5384667 -0.43164057 0.20088449 4855841 -0.96149296 -0.073779956 -0.26474136 0.072041616
2.5193577 -0.42386836 0.20642635 4593701 -0.97616017 -0.16066739 -0.14593622 0.063661724
2.5239336 -0.42040849 0.20213798 4266266 -0.8678211 -0.027932566 0.49609113 0.0088292435
2.5185354 -0.40500829 0.20614928 4657952 -0.98110789 -0.0063348738 -0.1933579 0.088693075
2.5225396 -0.40265876 0.20084324 4331043 -0.78228635 -0.031172773 0.62213856 0.010079566
2.5177131 -0.38614827 0.20587219 4592672 -0.93635356 0.20603675 -0.28423735 0.065182768
2.5168908 -0.36728823 0.20559511 4527654 -0.88127273 0.10204785 -0.46145928 0.062918626
2.5160685 -0.34842816 0.20531803 4264983 -0.88321728 0.065908737 -0.46430942 0.054995295
2.5152462 -0.32956812 0.20504095 4526366 -0.92243254 0.069233894 -0.37990114 0.051495828
2.5326905 -0.31182688 0.20639366 4329499 -0.91939068 -0.040798999 -0.39122403 0.049625944
2.5318625 -0.29282984 0.20611456 4395293 -0.95256615 -0.027478168 -0.30308858 0.039194275
2.5216093 -0.28001398 0.20806831 4461851 -0.98918235 -0.12056409 -0.083562702 0.098103046
2.5310342 -0.27383277 0.20583546 4002840 -0.96503848 -0.0006070435 -0.26210767 0.038766365
2.5388355 -0.2620638 0.2079384 4329497 -0.97099733 -0.20785293 0.11815828 0.058460787
2.530206 -0.25483572 0.20555638 4198681 -0.990601 -0.12413809 -0.057441555 0.077559829
2.520844 -0.24287802 0.20558655 4263958 -0.91340899 -0.15826792 0.37501383 0.058564667
2.547621 -0.23640952 0.20689914 4198683 -0.99205321 -0.087126531 0.090771154 0.076325543
2.5204613 -0.22431004 0.20434564 4067606 -0.96441782 -0.10020457 0.24465767 0.05665433
2.5103126 -0.21640781 0.20337845 4199190 -0.91616315 -0.33744377 0.21627966 0.086106591
2.5200787 -0.20574206 0.20310476 3739672 -0.86239147 0.013515693 0.50606167 0.037736338
2.5020974 -0.18707311 0.20078728 3871258 -0.94800735 -0.09847378 0.3026301 0.06556274
2.5193133 -0.1686061 0.20062301 3673366 -0.91305953 -0.099250913 0.39556497 0.084777109
2.5028412 -0.038278893 0.20897603 3542289 -0.95130068 -0.066332757 -0.30104333 0.10726784
2.5024612 -0.019840106 0.20774376 3540480 -0.91071558 0.020031715 -0.41254815 0.079151124
2.5020814 -0.001401335 0.2065115 7690047 -0.91728473 0.10129893 -0.38513267 0.067093365
2.5192971 0.018366754 0.20638728 6176280 -0.97977698 0.13994631 -0.14301096 0.058481742
2.5189145 0.036934733 0.20514637 7031086 -0.99028325 0.075254433 -0.11694352 0.069014624
2.5185318 0.055502713 0.20390552 4924706 -0.97939223 -0.10378712 -0.17326045 0.060407981
2.5181491 0.074070692 0.20266461 3410205 -0.9800629 -0.097615466 -0.17305474 0.059245612
2.5177665 0.092638671 0.2014237 3344912 -0.96793044 -0.07337559 -0.24026389 0.052003913
2.5173838 0.11120665 0.20018286 3213586 -0.98546451 -0.12717721 -0.11263081 0.037925739
2.5185153 0.24247558 0.20966989 3675419 -0.99436146 -0.087678902 -0.059646714 0.041486118
2.5181327 0.26104355 0.20842898 3610396 -0.99582279 0.018434431 0.089426853 0.033026896
2.500165 0.27646434 0.2060746 3740961 -0.99611974 0.02034805 0.085624114 0.032396078
2.5173674 0.29817957 0.20594722 3412766 -0.99002331 0.059613951 0.12767184 0.025568498
2.5169847 0.31674749 0.20470637 4133666 -0.97855586 -0.043848723 0.20126043 0.037757967
2.516602 0.33531547 0.20346546 3609375 -0.98462546 -0.023425747 0.17310083 0.030337183
2.5162194 0.35388345 0.20222455 3608346 -0.99404937 -0.036484346 0.10263907 0.034747615
2.5158367 0.37245148 0.2009837 3938079 -0.99308938 -0.025083557 0.11464897 0.036077067
2.5165858 0.52228838 0.20922983 4793649 -0.99303812 0.028588016 0.11427199 0.034871165
2.5162032 0.5408563 0.20798898 5056823 -0.99320596 -0.045294859 0.1071928 0.03447682
2.5158205 0.55942434 0.20674807 5056819 -0.99813879 -0.049352318 0.035824288 0.053852715
2.5154378 0.57799226 0.20550722 4859960 -0.99500608 -0.0969631 0.0236893 0.055482414
2.5150552 0.59656018 0.20426631 5058363 -0.99824339 0.030346446 -0.050884411 0.05599254
2.5146725 0.61512822 0.2030254 5453889 -0.98617488 -0.021952147 -0.1642476 0.036738236
2.5142899 0.63369626 0.20178455 6243403 -0.95968503 -0.017858623 -0.28050989 0.032119781
2.5139072 0.65226418 0.20054364 6703438 -0.98723859 -0.050935335 -0.15088263 0.052141007
1.6673859 0.7895866 0.20650689 5844519 -0.57435536 -0.81393009 -0.087371178 0.077264681
1.7364638 0.78822643 0.20309137 6566702 0.060435504 -0.99715346 0.045084536 0.0034038292
1.6477692 0.79673362 0.20209926 3610392 -0.22239541 -0.95916331 -0.17477439 0.038739398
1.6751457 0.79401863 0.20586014 5909788 -0.089302532 -0.99014473 -0.10788178 0.029889936
1.7180247 0.79168952 0.20060709 6434853 -0.040359434 -0.99866605 0.032206979 0.0042780787
1.7727849 0.79407126 0.20787241 6895657 0.069092683 -0.9973675 0.022006894 0.0038936858
1.8294182 0.79610342 0.20155463 6763568 0.041023564 -0.99847013 0.037074726 0.0038195371
1.8498927 0.79226357 0.204163 6960429 0.066428192 -0.99726295 0.032462999 0.0062437239
1.9793787 0.79704958 0.20542774 6764333 -0.059381068 -0.99731272 -0.042910077 0.0083299614
2.0148358 0.79837948 0.20960844 6566960 4.8512593e-05 -0.99598712 -0.089496948 0.015849357
2.4970927 0.79531807 0.20766509 5255740 -0.91889054 0.05145565 0.39114267 0.099943154
1.6475192 0.808864 0.20128861 3149841 -0.26698026 -0.94088376 -0.20846884 0.037797116
1.666828 0.80238062 0.20631893 3873301 -0.91915303 -0.37846729 -0.10918001 0.10827558
1.7437899 0.80155474 0.20208657 6239002 0.12699944 -0.99184412 -0.010789056 0.0040413872
1.7782921 0.8074823 0.20598692 6567201 -0.0090489332 -0.99982423 0.016421329 0.009687678
1.7972398 0.80448937 0.20853049 6500909 -0.024458857 -0.99965101 0.0099850381 0.009935339
1.8510356 0.80656159 0.20200631 6633522 0.051562678 -0.99817407 -0.031460874 0.0068842852
1.8813771 0.80851877 0.20543447 6568482 0.087932654 -0.99612612 0.00080027065 0.0053112409
1.9558671 0.80102372 0.20260927 6698538 -0.023964603 -0.99439442 -0.10298329 0.0053474149
1.9622271 0.80713129 0.20111394 6370602 -0.017388031 -0.99953419 0.025080848 0.0081868647
1.9956658 0.80888397 0.20468473 6633004 0.039960936 -0.9907012 -0.13005494 0.019311449
1.6662703 0.8151747 0.20613097 3347735 -0.99896252 -0.03885648 -0.02375222 0.020423561
1.9117277 0.81003487 0.20889205 6634275 0.05492596 -0.99689454 0.05643072 0.0046863994
2.0301499 0.81064951 0.20836988 6436656 0.034620382 -0.98264927 -0.18221381 0.0307694
1.6657125 0.82796878 0.205943 3346704 -0.99546498 0.078585677 -0.053608477 0.017404379
2.5142739 0.82066905 0.20754892 5651014 -0.98969156 -0.12954558 0.061062202 0.063878991
2.5138912 0.83923703 0.20630807 5717061 -0.97973984 -0.12418625 -0.15712294 0.054739896
1.6651547 0.84076285 0.20575504 3150607 -0.99079478 0.12163064 -0.059427992 0.016640171
1.6735108 0.85896575 0.20677266 2953226 -0.99717814 0.0089242943 -0.074539639 0.019657997
2.4959528 0.8506344 0.20396835 5453119 -0.9730342 -0.091537789 -0.21172 0.051298551
2.4955728 0.86907309 0.20273614 5387324 -0.96539241 -0.054563053 -0.25503021 0.05505529
1.6634812 0.87914515 0.20519115 2821387 -0.9910354 -0.1266055 -0.042661086 0.019906018
1.6729499 0.87182832 0.20658369 2821642 -0.99518049 -0.073806517 -0.064563572 0.021832142
1.6629235 0.89193928 0.20500319 2821391 -0.97575814 -0.18192951 -0.12164631 0.018270848
2.5127432 0.89494091 0.2025854 6111301 -0.9844259 -0.14511216 0.099238344 0.054596364
1.6623657 0.9047333 0.20481521 2886930 -0.9688136 -0.14244752 -0.20275362 0.024372667
2.494813 0.90595061 0.20027161 6111301 -0.9971512 -0.065655462 0.037132949 0.05674446
2.5145516 0.97744846 0.20990433 5518914 -0.99954855 -0.02991005 -0.0028509947 0.03871379
2.5137115 0.99671948 0.20962121 5124152 -0.99892706 -0.030847304 -0.034543965 0.039365966
2.494751 -1.4188131 0.21001178 2823198 -0.96401703 0.12482206 0.23471382 0.14628106
2.4899647 -1.3515081 0.21387008 3150882 -0.83817846 0.54408294 -0.037825394 0.05050645
2.5067334 -1.3414756 0.21524642 3281948 -0.85202038 0.50040168 -0.15381658 0.091649801
2.5234907 -1.3311841 0.216619 3217188 -0.87135398 0.43152642 -0.23351058 0.082256205
2.5051234 -1.3045468 0.21470389 3415844 -0.98538458 -0.027874392 -0.16804822 0.055697929
2.5043185 -1.2860826 0.21443263 3677486 -0.96777201 -0.11969516 -0.22156352 0.067100771
2.4954896 -1.2710615 0.21814308 3414306 -0.93728226 0.066931143 -0.34208512 0.040580802
2.5035133 -1.2676183 0.21416135 3677484 -0.94768387 0.11341589 -0.29838261 0.10318206
2.5127854 -1.2603741 0.21811748 4005675 -0.94472075 0.036946416 -0.32578784 0.045260243
2.5202482 -1.2568095 0.21552633 3744300 -0.93610841 0.23087202 -0.26532865 0.12680519
2.5124054 -1.2419354 0.21688524 3808296 -0.99035245 -0.00414248 -0.13850997 0.07358443
2.5702739 -1.2419603 0.21143809 3808813 -0.73245406 -0.41678292 0.53833359 0.023718514
2.5194376 -1.2382158 0.21525316 3743027 -0.87205923 0.47261959 -0.1270566 0.14918333
2.5120254 -1.2234966 0.215653 3939882 -0.99983305 -0.010133561 -0.015207739 0.078142218
2.5010984 -1.2122256 0.21334755 4136756 -0.92817163 0.35550496 -0.11006193 0.096881174
2.5116456 -1.2050577 0.21442074 3939116 -0.99553502 -0.033826794 -0.088124149 0.1284491
2.5353391 -1.2082956 0.21633734 3939629 -0.97187579 0.20159122 0.1217313 0.086296
2.5345228 -1.1895726 0.21606228 3743269 -0.95765918 0.28423908 0.045793675 0.073797822
2.493603 -1.1795138 0.21202502 4201514 -0.91046548 0.27751121 -0.30665964 0.17156313
2.5337064 -1.1708494 0.2157872 3744033 -0.95486969 0.24021158 -0.17470628 0.041781675
2.4932256 -1.1612042 0.21080139 4201001 -0.88128906 0.26287627 -0.39271572 0.11894502
2.5458202 -1.1634352 0.2130163 4004651 -0.95450336 0.29513502 0.042647272 0.1931666
2.5514264 -1.1594104 0.21723258 4136746 -0.95656008 0.22213037 -0.18881443 0.036466785
2.545435 -1.144738 0.21176678 4332847 -0.94410473 0.27727962 0.17827609 0.14849392
2.5506041 -1.1405504 0.2169555 4333098 -0.9876073 -0.08179839 -0.13394348 0.046528969
2.5497818 -1.1216903 0.21667841 4398893 -0.96202993 -0.24103926 -0.1280569 0.024683669
2.5173595 -1.1148956 0.21887955 4135206 -0.93178666 -0.27927911 0.23189829 0.042685658
2.5159929 -1.0974944 0.21761021 4135719 -0.96964949 -0.19287886 0.15025891 0.054294296
2.5304413 -1.0959575 0.21468693 4530479 -0.9930461 -0.037573706 -0.111569 0.051736712
2.4970875 -1.0737691 0.21582177 4137259 -0.9902516 0.0088169957 0.13901104 0.040661912
2.5296249 -1.0772344 0.21441185 4596009 -0.9919399 0.10716683 -0.067605503 0.053715799
2.5132594 -1.0626918 0.21507153 4465450 -0.98384118 0.076841742 0.16171536 0.043533769
2.5473151 -1.0651102 0.21584716 4727595 -0.98870069 0.12741348 -0.078973331 0.053046644
2.5118928 -1.0452905 0.21380213 4399912 -0.97664338 0.018608512 0.21405937 0.048625011
2.5279925 -1.0397882 0.21386172 4662314 -0.9372611 0.19041654 -0.29203278 0.05247337
2.5105259 -1.0278893 0.21253279 4202280 -0.95771986 -0.21317557 0.19320694 0.044180933
2.5456705 -1.02739 0.21529301 5055789 -0.98044819 0.042701915 -0.19208825 0.057827365
2.4916587 -1.0046489 0.2107797 4529966 -0.98703349 -0.094713338 -0.12959337 0.065078132
2.5448482 -1.0085299 0.21501592 5252147 -0.99094349 0.11697465 -0.065939561 0.046621963
2.5440259 -0.98966992 0.21473883 5120561 -0.99915296 -0.014809853 -0.03839412 0.034719631
2.5445037 -0.97298551 0.21664128 4923690 -0.98900574 -0.14782861 0.0037939479 0.027571008
2.5439 -0.95420688 0.21587798 4791853 -0.99305552 -0.11481967 0.025635378 0.028690655
2.5273814 -0.93247944 0.2151528 4858149 -0.9999761 0.0059381262 -0.0035410973 0.082969032
2.541559 -0.93308973 0.21390758 4727341 -0.99887204 -0.031028206 -0.035944473 0.017882545
2.5426927 -0.91664958 0.21435139 4792358 -0.9986164 -0.025729993 -0.045860883 0.056523092
2.5629478 -0.90569699 0.21504217 4792105 -0.99546456 0.056125686 0.076812632 0.065444052
2.5217872 -0.8916924 0.21930495 4398883 -0.97656143 0.20856981 -0.05316392 0.050343562
2.5399146 -0.89536971 0.21335343 4988975 -0.95234376 -0.30463612 -0.015435169 0.015106838
2.5224302 -0.87407798 0.21361451 4791851 -0.99894685 -0.017741734 -0.042312529 0.045618843
2.5354006 -0.8611033 0.21723577 4792620 -0.9987666 0.034980766 -0.035236359 0.042701352
2.5434921 -0.86297798 0.21132371 4660521 -0.98409855 -0.17039125 -0.050168127 0.05546416
2.5198295 -0.85255778 0.21111102 5054249 -0.99963713 0.022465821 -0.014864066 0.064418182
2.5340161 -0.84347481 0.2159498 4529448 -0.99901032 -0.033850644 0.028855057 0.05377334
2.5431068 -0.84428078 0.21007419 4661285 -0.99240208 -0.076001368 -0.096757397 0.06178556
2.5374477 -0.83878952 0.21252218 5054250 -0.99326628 0.11229095 -0.028510481 0.060520187
2.5162847 -0.82163274 0.21419433 4529446 -0.99277347 -0.11463156 -0.035503987 0.061791908
2.5366254 -0.81992948 0.21224509 4792097 -0.9949435 -0.10015288 -0.0075413887 0.064011924
2.533525 -0.80464357 0.21267298 4660005 -0.98908365 -0.1279158 -0.073150992 0.046912469
2.5298624 -0.79058909 0.21209201 4462883 -0.99999201 -0.0038278401 0.0011673272 0.043481059
