# .PCD v0.7 - Point Cloud Data file format
VERSION 0.7
FIELDS x y z rgb normal_x normal_y normal_z curvature
SIZE 4 4 4 4 4 4 4 4
TYPE F F F U F F F F
COUNT 1 1 1 1 1 1 1 1
WIDTH 538
HEIGHT 1
VIEWPOINT 0 0 0 1 0 0 0
POINTS 538
DATA ascii
2.5421388 0.89389718 0.5762077 8941947 -0.9851355 0.10060911 -0.13923338 0.034858398
2.5425794 0.91263485 0.5762707 8679286 -0.98226207 0.16559011 -0.087983437 0.047568019
2.5430198 0.93137246 0.57633364 8547700 -0.99478507 0.057016298 0.08456894 0.045730058
2.5434604 0.95011002 0.57639664 8613241 -0.99390638 -0.038771268 0.10318393 0.042719476
2.5439007 0.96884769 0.57645959 8415083 -0.99565732 0.05948218 0.071612976 0.048593406
2.3888981 -1.3725473 0.58371538 10390664 -0.93793893 -0.33572483 -0.086945333 0.099346779
2.406636 -1.3640839 0.58746743 10521991 -0.96869826 -0.23463181 -0.081065468 0.10165092
2.4079125 -1.3097906 0.58764988 10385040 -0.95230484 -0.30512542 0.0037538637 0.053435214
2.3910103 -1.2827059 0.58401722 11508124 -0.99429983 0.0084930807 -0.10628182 0.043410365
2.3914328 -1.2647376 0.58407754 11377563 -0.98247832 0.071390085 -0.17216237 0.026096504
2.391855 -1.2467693 0.58413798 11509147 -0.96900308 0.16971892 -0.17952284 0.025104716
2.4096143 -1.2373997 0.58789307 11640480 -0.96633869 0.18733656 -0.17633653 0.024894422
2.4100399 -1.2193018 0.58795387 11772319 -0.93038648 0.18194416 -0.31824118 0.029692432
2.4104652 -1.2012041 0.58801466 11772066 -0.86039597 0.14987506 -0.4870896 0.031539943
2.4108908 -1.1831063 0.58807546 11837859 -0.89969516 0.21743181 -0.37851289 0.067438371
2.4113162 -1.1650085 0.58813632 11969700 -0.96894544 0.22333354 -0.10614564 0.075016499
2.4117417 -1.1469109 0.58819711 12232360 -0.95949012 0.27618188 0.055698447 0.059303772
2.4121673 -1.1288129 0.58825791 12364207 -0.96390957 0.26295447 0.041632775 0.040963572
2.4863355 -0.82458198 0.58546156 13483717 -0.89951169 0.3694765 -0.23316477 0.060762469
2.4693749 -0.8006134 0.58194715 13549510 -0.97529715 -0.12809215 -0.17996641 0.093370363
2.4711125 -0.72669894 0.58219546 13878221 -0.95407927 0.17541604 -0.24282084 0.071960963
2.4715469 -0.70822036 0.58225757 13615049 -0.98283017 -0.013752311 -0.18399946 0.068638064
2.4719813 -0.68974179 0.58231968 13615050 -0.99122071 -0.074771091 -0.10904475 0.044778399
2.4724157 -0.67126322 0.58238178 13483463 -0.99693191 0.077650122 -0.0098601431 0.034961335
2.4728503 -0.65278459 0.58244389 13483464 -0.99721903 0.033119421 0.066763975 0.023729121
2.4732847 -0.63430595 0.58250594 13549256 -0.97384208 0.20935269 0.088335112 0.038497463
2.4737191 -0.61582738 0.58256799 13548999 -0.96365118 0.25803474 0.069242306 0.046397615
2.4741535 -0.59734875 0.5826301 13351620 -0.99795288 0.056541704 -0.029885735 0.073048383
2.4745879 -0.57887018 0.58269221 13615049 -0.96515149 -0.14725816 -0.2163278 0.074376166
2.4750223 -0.56039155 0.58275431 13483464 -0.9582386 -0.11778882 -0.26058516 0.059699222
2.4754567 -0.54191297 0.58281636 13549257 -0.99705756 0.02481618 -0.072528839 0.063515946
2.4758911 -0.52343434 0.58287847 13351365 -0.98245198 0.14752866 0.11412068 0.032885693
2.4763255 -0.50495577 0.58294052 13351877 -0.96853745 0.21805759 0.11994209 0.034526855
2.49421 -0.48963639 0.58658695 13154498 -0.9478032 0.30381033 0.096790656 0.027924381
2.4946475 -0.4710283 0.58664948 13088705 -0.98668063 0.14923744 0.06472706 0.05673793
2.495085 -0.45242023 0.586712 13220034 -0.99350238 -0.10958114 0.03074141 0.051899038
2.4955225 -0.43381214 0.58677453 13088706 -0.99389434 -0.10395665 -0.036974993 0.070082985
2.4784977 -0.41256279 0.583251 13088706 -0.98526055 0.13674803 -0.10277006 0.06820868
2.4789321 -0.39408416 0.58331305 13285572 -0.9708668 0.20879623 -0.11756609 0.055675067
2.4968348 -0.37798786 0.58696204 13154247 -0.97256452 0.22994691 0.035252724 0.0300209
2.4972723 -0.35937983 0.58702463 13022661 -0.9972837 0.054182272 0.049895853 0.029969446
2.4977098 -0.34077173 0.58708709 13022913 -0.99884266 -0.043120455 0.021308364 0.04223581
2.4981472 -0.32216364 0.58714968 12825534 -0.99142247 -0.12836982 0.024550477 0.058019944
2.4815388 -0.2832126 0.58368558 12891326 -0.97806001 0.0070113018 -0.20820533 0.077507868
2.4819732 -0.26473397 0.58374768 12825533 -0.99740517 0.012115818 -0.070966072 0.04863219
2.4824076 -0.24625535 0.58380979 12891326 -0.98887336 0.049829632 -0.14016595 0.040525045
2.482842 -0.22777677 0.5838719 13022137 -0.98127443 0.13647427 -0.13592418 0.053237867
2.500772 -0.2105151 0.58752477 12759481 -0.93779987 0.31058469 -0.15514052 0.059296027
2.5020845 -0.15469083 0.58771235 12496311 -0.96498978 -0.030304542 -0.2605311 0.072081529
2.5029595 -0.11747466 0.5878374 12562361 -0.96129787 0.12634036 -0.24483582 0.062000446
2.503397 -0.098866582 0.58789992 12496056 -0.96404386 -0.058286056 -0.25927246 0.063574053
2.5042717 -0.061650403 0.58802497 12298677 -0.9818306 -0.16623996 -0.091504231 0.046753928
2.5047092 -0.04304231 0.5880875 12101300 -0.9892267 -0.14541532 -0.016881296 0.04768765
2.5051467 -0.024434226 0.58814996 12101298 -0.9871071 -0.15792331 -0.026075505 0.034900535
2.4880552 -0.0060335575 0.5846169 12166577 -0.98955327 -0.13311912 -0.055350706 0.041170668
2.4884896 0.012445034 0.58467895 12232369 -0.99041748 0.12656476 -0.055268858 0.04735598
2.5064592 0.031390034 0.5883376 12035505 -0.96478987 0.25952905 0.04272154 0.024958611
2.5068967 0.049998127 0.58840007 11838639 -0.97832131 0.18955997 0.083393067 0.018217698
2.5073342 0.068606205 0.58846265 11903151 -0.9950704 -0.033631586 0.093294211 0.0088166296
2.5077715 0.087214291 0.58852512 11837612 -0.99890965 -0.034752335 0.031173363 0.017428944
2.508209 0.10582237 0.5885877 11771819 -0.99422526 0.098541759 0.042493206 0.031776078
2.5086465 0.12443046 0.58865017 11771819 -0.9707849 0.23993415 0.0028973818 0.036814123
2.509959 0.18025474 0.58883774 11640484 -0.98991686 -0.14150488 0.0064020464 0.039381079
2.5103965 0.19886282 0.58890027 11640233 -0.99401468 0.067553543 -0.085857183 0.049985811
2.510834 0.21747091 0.58896279 11640232 -0.96884406 0.19983417 -0.14631304 0.032639176
2.515646 0.42215985 0.58965057 10850203 -0.98347944 -0.078537643 -0.1630953 0.027995262
2.5160835 0.44076794 0.58971304 10784923 -0.97641593 -0.0032876786 -0.21587285 0.023671845
2.5169585 0.47798413 0.58983809 10653335 -0.99718636 0.056431156 -0.049344499 0.050674815
2.517396 0.49659222 0.58990067 10653078 -0.99726188 0.057539061 -0.046454329 0.048797902
2.0701089 0.80745971 0.58605295 7491665 -0.22621481 -0.97025257 0.086237416 0.039665781
2.0819731 0.82737201 0.58894557 7293248 -0.26328936 -0.9613713 0.080274299 0.040273413
1.9925916 0.83312827 0.58085573 7293236 -0.046905 -0.99621344 0.073203199 0.0057694227
2.0257642 0.83281529 0.58931738 7359031 -0.12177033 -0.99254882 -0.0043458822 0.026458491
2.0708222 0.83780551 0.58615488 6899266 -0.22093984 -0.97466236 0.03491246 0.036175005
2.4233611 -1.35481 0.59100312 10654865 -0.95609552 -0.25259995 -0.14857559 0.10243416
2.4237895 -1.3365904 0.59106427 10131613 -0.94656146 -0.20731334 -0.24706821 0.094791345
2.4289296 -1.1179549 0.59179896 12429998 -0.98310679 0.18287669 -0.0075632413 0.033324484
2.4293578 -1.0997353 0.59186012 12758965 -0.9933446 0.090054758 0.071809962 0.022871755
2.4297862 -1.0815157 0.59192139 12890549 -0.99319601 0.022164278 0.11432615 0.0022810821
2.4302144 -1.063296 0.59198254 12562100 -0.99317884 0.022447288 0.11441994 0.0022817638
2.4306428 -1.0450765 0.59204382 12300209 -0.99445295 0.098284543 0.037463326 0.023334848
2.4310713 -1.0268568 0.59210497 12693940 -0.9871366 0.13919196 -0.078657724 0.029286982
2.4314995 -1.0086372 0.59216624 12627893 -0.96473217 0.24298255 -0.10124913 0.029672436
2.4319279 -0.99041748 0.5922274 12694199 -0.93599111 0.30306831 -0.17908163 0.032178741
2.4497383 -0.97885406 0.59599 12825787 -0.97344232 0.22250906 -0.053850021 0.048629269
2.4501696 -0.96050495 0.59605163 13154750 -0.99818438 0.056766849 0.020137006 0.039946396
2.4506011 -0.9421559 0.59611326 13023166 -0.99978721 0.00025325693 0.020627543 0.021430353
2.4510324 -0.92380667 0.5961749 13286338 -0.99700159 0.073621832 -0.023826467 0.027388323
2.4514637 -0.90545762 0.59623659 13220032 -0.99189001 0.1208558 -0.039345734 0.028299086
2.4518952 -0.88710845 0.59629822 13154752 -0.9980002 0.017842377 0.060640648 0.011819387
2.4523265 -0.86875939 0.59635991 13154752 -0.99325365 0.022999819 0.1136583 0.00090113928
2.4527578 -0.85041028 0.59642154 13154239 -0.99093306 0.1227937 0.054528832 0.019362094
2.4531894 -0.83206111 0.59648317 13351618 -0.9504807 0.30409816 -0.064115018 0.049183439
2.4549148 -0.75866473 0.59672982 13483206 -0.99932599 0.036556643 0.0033427402 0.058935881
2.4553461 -0.74031556 0.59679145 13549256 -0.98232663 0.12124514 -0.14259775 0.066959627
2.4562089 -0.70361739 0.59691471 13549257 -0.98306215 0.073946528 -0.16769272 0.060158338
2.4570718 -0.66691917 0.59703809 13615049 -0.98953468 0.1439829 -0.0094910786 0.04535396
2.4575031 -0.64857 0.59709972 13351878 -0.98230028 0.16305722 0.092187591 0.042149503
2.4592288 -0.57517356 0.59734631 13550026 -0.96023875 -0.10707643 -0.25782976 0.059991669
2.5160651 -0.30541992 0.59080076 12956607 -0.99875081 -0.030955108 -0.039225347 0.055267073
2.5187082 -0.19299448 0.59117848 12628155 -0.9414708 0.27353588 -0.19700465 0.062928542
2.5191486 -0.17425689 0.59124142 12627642 -0.95157593 0.1787829 -0.25007981 0.070027262
2.5200298 -0.13678174 0.59136736 12233396 -0.94072741 -0.034665182 -0.33738747 0.050346367
2.5213513 -0.080569007 0.59155625 12299190 -0.9532665 -0.10077351 -0.28482932 0.041701235
2.5266376 0.14428188 0.59231168 11837099 -0.99278295 0.088306308 0.081141762 0.036499504
2.5270779 0.16301945 0.59237468 11837098 -0.99722135 -0.073893242 -0.0094566653 0.048023015
2.5288401 0.23796974 0.59262651 11574439 -0.96226865 0.215359 -0.16631161 0.034068428
2.5292804 0.25670731 0.59268945 11442854 -0.96705067 0.14242317 -0.21101816 0.034398001
2.529721 0.27544487 0.5927524 11377060 -0.98745155 -0.03075414 -0.15489882 0.022504009
2.5301616 0.29418245 0.59281534 11376548 -0.97981989 -0.040369116 -0.19576366 0.022823334
2.530602 0.31292003 0.59287834 11179169 -0.992167 0.010514383 -0.1244755 0.035943758
2.5310426 0.33165762 0.59294128 11179422 -0.99459714 0.10055517 -0.025791664 0.038184036
2.5314832 0.35039517 0.59300429 11179420 -0.99561483 0.093333609 0.0063255806 0.034939349
2.5319235 0.36913276 0.59306723 11113375 -0.99990964 -0.007566907 0.011112862 0.037262548
2.5323641 0.38787034 0.59313017 10915996 -0.98324406 -0.13457817 -0.12296284 0.024857048
2.5328047 0.4066079 0.59319311 10981530 -0.97953194 -0.15705428 -0.12590161 0.024035508
2.5341263 0.46282059 0.593382 10850203 -0.99639589 0.062225774 -0.057647321 0.051532336
2.5354478 0.51903337 0.59357089 10521238 -0.99816018 0.024273716 -0.055561408 0.050967772
2.5358882 0.53777099 0.59363383 10521751 -0.99187458 0.022450622 -0.1252232 0.039483253
2.5187085 0.5524165 0.59008819 10390163 -0.97558916 0.042920265 -0.21536875 0.022264602
2.5367694 0.5752461 0.59375972 10192525 -0.96576381 -0.0067527089 -0.2593351 0.031308699
2.5372097 0.59398365 0.59382266 10191760 -0.97010571 0.093847454 -0.22380272 0.037428241
2.5200207 0.60824072 0.59027576 10060688 -0.98448312 0.096917175 -0.14628775 0.026132507
2.5380909 0.63145882 0.5939486 9994895 -0.99477178 0.084960952 -0.056663599 0.039763693
2.5385313 0.65019637 0.5940116 9994894 -0.99972087 0.019000355 0.014042147 0.049326457
2.5389719 0.66893399 0.59407455 9863309 -0.99516958 -0.093961723 0.028438754 0.041397255
2.5217707 0.6826731 0.59052587 9731469 -0.9985472 -0.040997993 -0.034967963 0.050819334
2.5398529 0.70640916 0.59420043 9666442 -0.97759199 0.083999284 -0.19302361 0.038900625
2.5402935 0.72514671 0.59426337 9535108 -0.97725725 0.17554304 -0.11896611 0.03481419
2.5407341 0.74388427 0.59432632 9600136 -0.99531263 0.093136303 -0.026046179 0.023130389
2.5411744 0.76262188 0.59438932 9403271 -0.99979854 0.01954909 0.0045468737 0.018971547
2.541615 0.78135943 0.59445226 9140868 -0.99978542 0.017467242 -0.011138111 0.018010167
2.5420556 0.80009693 0.59451526 9075075 -0.99976349 0.018671444 -0.011152841 0.018017666
2.542496 0.81883454 0.59457821 9140098 -0.99780238 0.037318923 0.054751929 0.011859545
2.0484533 0.82763064 0.59511799 6964028 -0.20703359 -0.97733384 0.044223718 0.033150282
2.5429366 0.83757216 0.59464115 9205891 -0.99568915 -0.022481725 0.089987017 0.012301093
2.5433772 0.85630977 0.59470409 8943487 -0.99096864 -0.11853359 0.062697858 0.027319968
2.5438175 0.87504733 0.59476703 9008510 -0.99689436 -0.0060943821 0.078514665 0.034396157
2.526583 0.88736206 0.59121358 8810367 -0.99819601 0.030628936 0.051639684 0.031853188
2.5446987 0.91252249 0.59489298 8744828 -0.97216523 0.21325055 0.097051211 0.033154685
2.5638607 0.93833488 0.59878612 8547448 -0.99199986 0.045821607 0.11762961 0.026296169
2.5643044 0.95720953 0.59884953 8415609 -0.98804545 0.10340986 0.11433542 0.03327195
2.54602 0.96873534 0.59508187 8284526 -0.98840278 0.087300912 0.12425172 0.031012243
2.565192 0.99495906 0.59897631 8084578 -0.99230552 0.040710256 0.11692968 0.028242704
2.4082575 -1.3822901 0.60539299 10521478 -0.88064772 -0.46600956 0.085409284 0.098251052
2.3913531 -1.3546867 0.60163349 10391432 -0.96262127 -0.26834872 -0.03673315 0.0831616
2.3917754 -1.3367184 0.60169387 10785424 -0.96634215 -0.11424726 -0.23050039 0.068296142
2.4095337 -1.3279969 0.60557538 10328472 -0.97908187 -0.15937904 -0.12647963 0.066848129
2.3926203 -1.300782 0.60181463 3478816 -0.98305225 -0.17908651 -0.039196122 0.048968572
2.3930428 -1.2828137 0.60187501 11245722 -0.99441224 -0.10513886 -0.0094947005 0.036351632
2.3934653 -1.2648454 0.60193533 11508894 -0.98925203 0.038451388 -0.14107427 0.033785652
2.3938875 -1.2468771 0.60199577 11509663 -0.98383057 0.11195526 -0.13979825 0.035744898
2.39431 -1.2289088 0.60205609 11575457 -0.93476367 0.083580211 -0.34529889 0.026484545
2.3947325 -1.2109406 0.60211647 11575457 -0.93797696 0.052629735 -0.34267968 0.038365692
2.395155 -1.1929724 0.60217685 11837602 -0.90162987 0.20870958 -0.3788192 0.053972341
2.3955774 -1.175004 0.60223722 12034978 -0.90784156 0.32493728 -0.26502717 0.079277001
2.413363 -1.165117 0.60612267 12035240 -0.93798178 0.30405346 -0.16655834 0.096073635
2.4137886 -1.1470194 0.60618347 12298412 -0.93885523 0.27216613 -0.2108945 0.06088626
2.430562 -1.1362836 0.60984528 12298410 -0.96182704 0.25059986 -0.10994752 0.044989243
2.4309905 -1.118064 0.60990649 12168106 -0.9533084 0.24934627 -0.17038085 0.051886104
2.4314187 -1.0998445 0.60996777 12430768 -0.97558373 0.18421669 -0.11958507 0.053754274
2.4710305 -0.81920278 0.60024995 13155266 -0.96701437 0.22623557 -0.11705011 0.056368813
2.4714651 -0.80072427 0.60031205 13483717 -0.98179698 -0.05336361 -0.18228292 0.078015149
2.4718995 -0.78224564 0.60037416 13482951 -0.9666146 -0.24354431 -0.079639323 0.056431327
2.4732027 -0.7268098 0.60056037 13418440 -0.95749098 0.242676 -0.15594657 0.074036106
2.4740715 -0.68985265 0.60068458 13483464 -0.99462122 0.0084476816 -0.10323466 0.05617658
2.4753749 -0.63441682 0.60087085 13351877 -0.96961814 0.18961172 0.15455782 0.03925442
2.4932525 -0.62000459 0.60464293 13548999 -0.99717528 0.074505851 -0.0095050866 0.068015225
2.49369 -0.60139656 0.60470539 13614537 -0.97121757 -0.14664993 -0.18769731 0.067602657
2.4771125 -0.56050241 0.60111922 13286855 -0.97107929 -0.051306989 -0.23317935 0.065682374
2.4775469 -0.54202384 0.60118127 13615050 -0.98113388 0.10099645 -0.1648518 0.046604935
2.4779813 -0.52354521 0.60124338 13351365 -0.97714764 0.19318542 -0.088667102 0.032355379
2.4784157 -0.50506663 0.60130543 13351365 -0.95979786 0.28063881 -0.0054776599 0.031668816
2.4788504 -0.48658803 0.60136753 13220291 -0.96972317 0.24254476 0.028444871 0.032793872
2.4967523 -0.47113994 0.60514307 13023682 -0.9925698 0.12096009 0.013188901 0.053335283
2.4971898 -0.45253187 0.6052056 13088448 -0.99683869 -0.078971729 0.0087283999 0.049163863
2.4801536 -0.43115222 0.6015538 13088193 -0.98883635 -0.14845394 -0.012812846 0.058203742
2.480588 -0.41267362 0.60161591 13220034 -0.99701667 0.0045529301 -0.077052608 0.079604
2.498502 -0.39670759 0.60539311 13088959 -0.96262193 0.23540786 -0.13394846 0.069095165
2.4989395 -0.3780995 0.6054557 13022912 -0.90964353 0.39017928 -0.14250945 0.053346477
2.499377 -0.35949147 0.60551816 12957120 -0.99704343 0.051205855 -0.057292014 0.06855379
2.4998145 -0.34088337 0.60558075 12891326 -0.99857527 -0.050686419 -0.016683312 0.057149414
2.4827602 -0.32028061 0.60192633 12891327 -0.94237006 -0.25945365 -0.21124066 0.055707045
2.4831946 -0.30180204 0.60198838 12825021 -0.97251612 -0.038893335 -0.2295642 0.091818452
2.483629 -0.28332344 0.60205048 12825533 -0.97610581 0.11794911 -0.18249805 0.096530147
2.5015645 -0.266451 0.60583085 12826303 -0.98256356 -0.14991939 -0.10996857 0.076136224
2.5020018 -0.24784289 0.60589331 12891327 -0.99201787 -0.02615826 -0.12335455 0.058347087
2.4849322 -0.22788762 0.60223681 12627642 -0.99722099 0.056351312 -0.048731446 0.07636068
2.4853666 -0.20940901 0.60229886 12496568 -0.95644373 0.23201016 -0.17716296 0.071316525
2.5033143 -0.19201863 0.60608089 12431029 -0.93124753 0.14924535 -0.33242118 0.067080088
2.5037518 -0.17341053 0.60614341 12430775 -0.88256782 0.13878125 -0.44923705 0.030886933
2.5041893 -0.15480244 0.60620594 12364470 -0.91612089 0.024183458 -0.40017214 0.044027217
2.5046268 -0.13619436 0.60626847 12299190 -0.9503938 0.032358579 -0.30936152 0.05667175
2.5050642 -0.11758628 0.60633099 12430265 -0.97276002 0.085521549 -0.21546234 0.060798347
2.5055017 -0.098978199 0.60639352 12627642 -0.97714782 0.00075299281 -0.21255952 0.076174587
2.505939 -0.080370106 0.60645604 12232884 -0.98849595 -0.061812125 -0.13804017 0.059406098
2.488842 -0.061580203 0.60279554 12167091 -0.9814629 -0.045490116 -0.1861752 0.058273833
2.506814 -0.043153934 0.60658109 12166323 -0.99050462 -0.1271643 -0.052248083 0.057470422
2.489711 -0.024623008 0.60291976 12166576 -0.98944169 -0.12625106 -0.071175031 0.041701619
2.4901454 -0.0061443988 0.60298181 12166576 -0.98895222 -0.13762873 0.055062428 0.047938086
2.4905798 0.012334192 0.60304385 12100530 -0.99274522 0.11961963 0.012166843 0.051837418
2.4910142 0.030812794 0.60310596 11904174 -0.95433706 0.29840899 0.013887623 0.022361781
2.5090015 0.04988651 0.60689372 11904685 -0.97406131 0.22626771 0.0027539509 0.021358309
2.509439 0.068494588 0.60695618 11706540 -0.99551475 -0.093198031 -0.016261712 0.02641505
2.5098763 0.087102674 0.60701877 11902632 -0.99792248 -0.046565674 -0.04452502 0.027007466
2.4927521 0.1047272 0.60335433 11771816 -0.998137 0.059749398 -0.012354227 0.032070205
2.5107512 0.12431885 0.60714382 11641002 -0.9765501 0.20811982 -0.055100083 0.03668955
2.5111887 0.14292695 0.60720628 11706026 -0.98521966 0.092762366 -0.14400458 0.062517524
2.5116262 0.16153504 0.60726881 11508644 -0.98049843 -0.079512559 -0.17972359 0.039133709
2.5120637 0.18014313 0.60733134 11639971 -0.9955557 -0.060659453 -0.072036766 0.04690836
2.5125012 0.19875121 0.60739386 11573673 -0.99636161 -0.067825161 0.051608086 0.031228727
2.5129387 0.2173593 0.60745639 11442854 -0.97775298 0.19334836 -0.081336178 0.050082717
2.5133762 0.2359674 0.60751891 11377058 -0.97326344 0.17247416 -0.15169397 0.045160979
2.514251 0.27318355 0.60764396 11442851 -0.97355938 0.050447423 -0.2227941 0.037970576
2.5146885 0.29179165 0.60770649 11180449 -0.98019272 -0.05662293 -0.18977925 0.019329816
2.515126 0.31039974 0.60776901 11049376 -0.97691125 0.10455782 -0.18631199 0.020312609
2.5155635 0.32900777 0.60783154 11114658 -0.98727381 0.13267474 -0.087680899 0.041065525
2.5173135 0.40344012 0.60808164 10850716 -0.97940445 -0.15759082 -0.126222 0.020221515
2.5177507 0.42204821 0.6081441 10850716 -0.98735511 -0.061610781 -0.14606173 0.030245276
2.5181882 0.4406563 0.60820669 10784410 -0.99503452 0.026298819 -0.0959934 0.040711481
2.5186257 0.4592644 0.60826916 10784664 -0.99447334 0.084129773 0.062808953 0.05595446
2.5190632 0.47787249 0.60833174 10456210 -0.98426205 0.095868118 0.14845049 0.058016062
2.5195007 0.49648058 0.60839421 10521749 -0.99522048 0.010037906 0.0971369 0.062080853
2.5199382 0.51508874 0.60845673 10324372 -0.99992764 -0.0088884262 0.0081136171 0.055811591
2.5203757 0.53369683 0.60851926 10324113 -0.9975366 -0.014585953 -0.068614945 0.049158126
2.5208132 0.55230492 0.60858178 10193038 -0.99066854 -0.055954516 -0.12427789 0.033347324
2.5212507 0.57091302 0.60864431 9930380 -0.98713517 -0.0018499804 -0.15987754 0.025719553
2.521688 0.58952105 0.60870683 10060939 -0.99092495 0.12143483 -0.057631344 0.040459134
2.5221255 0.60812914 0.60876936 10061198 -0.97501045 0.13254786 -0.17828552 0.025315618
2.5238755 0.68256152 0.60901946 9731723 -0.99502695 -0.081542335 -0.057203375 0.0467913
2.524313 0.70116961 0.60908192 9666183 -0.99136597 0.036090653 -0.12605934 0.041261476
2.5247505 0.7197777 0.60914451 9600901 -0.9707526 0.19782965 -0.13602518 0.021790816
2.0833399 0.81202382 0.60405713 7426135 -0.22459285 -0.97063112 0.086217165 0.040020619
2.0721817 0.82254153 0.60118341 7621445 -0.22062513 -0.97473794 0.034792349 0.036216214
2.5282502 0.86864239 0.60964471 8811131 -0.9896239 -0.094344646 0.10836782 0.037658468
2.5286877 0.88725048 0.60970718 8811133 -0.99580181 0.028465966 0.08699692 0.040185552
2.3942301 -1.3188579 0.61961192 10787483 -0.96123159 -0.26924011 0.059528165 0.069962166
2.3946526 -1.3008897 0.6196723 6182986 -0.99273258 -0.11833489 0.021882735 0.036096625
2.3950751 -1.2829214 0.61973268 11836562 -0.98689151 -0.13471638 0.088863343 0.028103404
2.3954976 -1.2649531 0.619793 11312284 -0.99638319 -0.019322162 0.08274772 0.034583434
2.3959198 -1.2469848 0.61985344 11378078 -0.99886703 0.030951094 -0.036147729 0.040001668
2.3963423 -1.2290165 0.61991376 11444384 -0.99123257 -0.032820199 -0.12798771 0.045016434
2.3967648 -1.2110484 0.61997414 11510177 -0.9864527 0.10595872 -0.12523524 0.082289726
2.3808367 -1.1852298 0.61631411 11837863 -0.92149144 0.37809128 -0.088885337 0.076086983
2.4318471 -1.0816249 0.61002892 12562100 -0.99590987 0.080659591 -0.040713012 0.024128621
2.4322753 -1.0634052 0.6100902 12628406 -0.99917525 0.03748038 0.015624383 0.020983515
2.4327037 -1.0451857 0.61015135 12431795 -0.99683917 0.044783164 0.065621458 0.012637586
2.4331322 -1.026966 0.61021262 12496561 -0.99776477 0.038832318 0.054383229 0.014030505
2.4335604 -1.0087464 0.61027378 12758965 -0.98251611 0.18556748 -0.015059919 0.029792003
2.4339888 -0.9905268 0.61033505 12890549 -0.95028466 0.31020373 -0.027068542 0.025954951
2.4518137 -0.97896409 0.61422616 13154237 -0.95993006 0.27572191 -0.050116926 0.031380527
2.452245 -0.96061498 0.61428785 13154752 -0.9915098 0.088310331 -0.095444709 0.04711134
2.4352736 -0.93586797 0.61051869 12958141 -0.99309152 -0.0023005481 -0.11731986 0.033139229
2.4531078 -0.9239167 0.61441118 13220545 -0.9930712 0.07502076 -0.090451673 0.03517006
2.4535391 -0.90556765 0.61447281 13220291 -0.97946721 0.17933586 -0.092101298 0.025743663
2.4539707 -0.88721848 0.61453444 13154239 -0.99493146 0.087636687 -0.049307991 0.024286266
2.454402 -0.86886942 0.61459607 13154752 -0.99941671 0.031126197 -0.014049962 0.018796466
2.4548333 -0.85052031 0.61465776 13351618 -0.99530667 0.094616093 -0.020309301 0.031663842
2.4552648 -0.83217114 0.61471939 13351620 -0.95104164 0.29126763 -0.10335871 0.054991856
2.4556961 -0.81382203 0.61478108 13352131 -0.98367053 0.085951515 -0.15812871 0.062669978
2.4735551 -0.80083507 0.61867696 13548997 -0.95193231 -0.020322802 -0.30563369 0.059195146
2.4565589 -0.77712381 0.61490434 13548999 -0.99393255 -0.0748263 -0.08061754 0.057648078
2.4569902 -0.75877476 0.61496598 13417158 -0.98409384 0.14878969 0.097061709 0.063612826
2.4574215 -0.74042559 0.61502767 13483206 -0.98932427 0.1228339 0.078418329 0.039271448
2.4752927 -0.7269206 0.61892527 13417670 -0.99580353 0.075878225 -0.051164538 0.046519525
2.4582844 -0.70372742 0.61515099 13417670 -0.99776155 0.0081992857 -0.06636776 0.050640553
2.4587157 -0.68537825 0.61521262 13615049 -0.99896216 0.037142068 -0.026363263 0.058882859
2.4765959 -0.67148489 0.6191116 13351878 -0.97085208 0.23613653 0.041058585 0.04546307
2.4770305 -0.65300626 0.61917371 13285572 -0.97399461 0.22486746 0.02773484 0.058762975
2.4774649 -0.63452762 0.61923575 13351365 -0.99351436 0.11368605 0.0021679851 0.078279071
2.4778993 -0.61604905 0.6192978 13417671 -0.98408973 -0.091333017 -0.15239994 0.071854465
2.4783337 -0.59757042 0.61935991 13549257 -0.97756004 -0.13999295 -0.15741162 0.063812777
2.4613042 -0.57528359 0.61558253 13417670 -0.99308753 -0.070967726 -0.093491949 0.071563207
2.4617355 -0.55693448 0.61564416 13351880 -0.99659598 0.057831369 -0.058753591 0.054790955
2.4621668 -0.53858536 0.61570585 13220291 -0.97353852 0.22404754 -0.045004703 0.04080965
2.4800713 -0.52365601 0.61960828 13220032 -0.97936332 0.18681642 -0.077117763 0.034520324
2.4805057 -0.50517744 0.61967033 13220034 -0.92190063 0.32042798 -0.21777317 0.030726561
2.4809403 -0.48669887 0.61973244 13285572 -0.93351012 0.23481663 -0.27096131 0.03921606
2.4818091 -0.44974166 0.61985666 13220034 -0.95457488 -0.04845785 -0.2940045 0.037781514
2.4822435 -0.43126306 0.6199187 13351620 -0.96112555 -0.1688896 -0.21843556 0.059146192
2.4651866 -0.41014165 0.61613744 13022655 -0.99417412 -0.013755746 -0.10690457 0.071703508
2.4677749 -0.30004695 0.61650735 12825021 -0.9966017 -0.052663151 -0.063337803 0.080485277
2.5313997 0.25659493 0.61131179 11377060 -0.95495307 0.1221825 -0.2704367 0.035994258
2.5336025 0.35028279 0.61162657 11048610 -0.98663437 0.12621082 -0.1030702 0.037679009
2.5340428 0.36902037 0.61168951 10785438 -0.99302268 -0.026788328 -0.11484044 0.043526012
2.5344834 0.38775796 0.61175251 10653338 -0.97540349 -0.15034987 -0.16119231 0.019836659
2.5402102 0.6313464 0.61257094 9994894 -0.96995181 0.20811807 -0.12601765 0.020745469
2.5406506 0.65008396 0.61263388 10060687 -0.998182 0.016205691 -0.058053326 0.051021714
2.5410912 0.66882157 0.61269683 9863309 -0.99193746 -0.11186653 -0.059548184 0.046002686
2.5428534 0.74377185 0.61294872 9272452 -0.98818386 0.12469222 -0.089132085 0.036831796
2.5432937 0.76250947 0.61301166 9403268 -0.9957841 0.020037271 -0.089512922 0.037882637
2.5437343 0.78124702 0.6130746 9271682 -0.98612285 -0.024260111 -0.16423525 0.025055204
2.5441749 0.79998451 0.61313754 9074303 -0.98477131 0.080415048 -0.15413949 0.021974003
2.5446153 0.81872213 0.61320049 9271171 -0.98687071 0.10747371 -0.1205638 0.021543803
2.5450559 0.83745974 0.61326349 9074306 -0.99684858 0.075857118 -0.023208588 0.032756403
2.5454965 0.85619736 0.61332643 8876927 -0.99196756 -0.064853467 0.10860242 0.039349299
2.546818 0.91241008 0.61351532 8679288 -0.97003406 0.23229611 0.07122153 0.032930274
2.5472584 0.93114769 0.61357826 8481909 -0.98594195 0.14492472 0.083158076 0.032268163
2.547699 0.94988525 0.6136412 8481142 -0.9939115 0.096331723 0.053479984 0.033891506
2.5481393 0.96862292 0.61370414 8087662 -0.99538726 0.068485908 0.067186207 0.030785704
2.5485799 0.98736036 0.61376715 8019812 -0.9972353 0.048917454 0.055936486 0.029941037
2.426626 -1.3914678 0.62709576 10128010 -0.92290413 -0.17263643 0.34415799 0.056882348
2.4270542 -1.3732482 0.62715703 10522250 -0.91052282 -0.28834021 0.29632434 0.056740087
2.4111555 -1.3462032 0.62350106 10785171 -0.92188704 -0.31422552 0.22668619 0.08479818
2.3976097 -1.1751118 0.6200949 11772836 -0.9323138 0.34600508 -0.10522098 0.079725169
2.41541 -1.1652256 0.62410915 11904424 -0.94874507 0.30637926 0.077553213 0.090724967
2.4158356 -1.147128 0.62416995 12232617 -0.98942697 0.085719019 -0.11698987 0.11581646
2.4162612 -1.12903 0.62423074 12298152 -0.9164058 0.14668149 -0.37240425 0.095138595
2.4166865 -1.1109324 0.6242916 12299182 -0.82908064 0.35281128 -0.43376207 0.079065017
2.4334793 -1.0999538 0.6280753 12758963 -0.92596591 0.15744543 -0.34321734 0.04138273
2.4339077 -1.0817342 0.62813646 12627893 -0.95920432 0.1816902 -0.21660051 0.045747057
2.4343359 -1.0635145 0.62819773 12431025 -0.99247104 0.10966515 -0.054541577 0.029950507
2.4347644 -1.045295 0.62825888 12365486 -0.99368459 0.11213353 -0.0041279276 0.025641603
2.4351928 -1.0270753 0.62832016 12495789 -0.99707097 0.063353777 0.042845648 0.022661304
2.435621 -1.0088557 0.62838131 12561586 -0.98533696 0.16986516 0.016031653 0.03040969
2.4360495 -0.99063605 0.62844259 12759733 -0.96367317 0.26607996 0.023141362 0.028786277
2.4373343 -0.93597722 0.62862623 13220545 -0.98570353 -0.019697255 -0.16733415 0.036324751
2.4377627 -0.91775757 0.62868744 13220545 -0.98122805 0.090822697 -0.17012592 0.03599897
2.4407611 -0.79022014 0.62911594 13483206 -0.99495113 -0.021307737 -0.098073006 0.057485987
2.498857 -0.47125155 0.62363672 13154498 -0.94161713 0.090630248 -0.32425824 0.034655288
2.4831123 -0.39430583 0.62004286 13088959 -0.97290367 0.22504543 -0.053038225 0.075181283
2.4835467 -0.37582722 0.62010497 13154241 -0.9209553 0.37437391 -0.10809945 0.062743753
2.5014818 -0.35960308 0.62401181 13022400 -0.96549976 0.21958245 -0.13997793 0.082306087
2.5019193 -0.34099498 0.6240744 13022400 -0.99866629 -0.03718096 -0.035821863 0.076439798
2.4848502 -0.32039145 0.62029123 12890814 -0.93121034 -0.31994182 -0.17459823 0.063009091
2.485719 -0.28343427 0.62041539 12956607 -0.98443085 0.17171648 -0.037541743 0.073289834
2.5036693 -0.26656261 0.6243245 12825534 -0.99040139 0.12563342 -0.057631411 0.076844893
2.4865878 -0.24647702 0.62053961 12891327 -0.99035561 -0.11020561 -0.083967194 0.058207031
2.4870222 -0.22799845 0.62060171 12562362 -0.98948097 0.10354828 -0.10102115 0.081318855
2.4874566 -0.20951985 0.62066376 12627897 -0.95392203 0.20429841 -0.21976116 0.072833441
2.4878912 -0.19104125 0.62072581 12364982 -0.95881265 0.11548054 -0.25950435 0.064739212
2.4883256 -0.17256264 0.62078792 12364983 -0.94097203 0.03366695 -0.33680588 0.074259914
2.48876 -0.15408404 0.62085003 12364983 -0.93118721 0.056296363 -0.36016819 0.052040357
2.4891944 -0.13560545 0.62091213 12299959 -0.95967907 0.14836831 -0.23875296 0.064093985
2.4896288 -0.11712685 0.62097418 12364982 -0.99064976 0.13345152 -0.028349459 0.059335176
2.4900632 -0.09864825 0.62103629 12233139 -0.99822462 -0.058643311 0.010424071 0.071796387
2.5080438 -0.080481723 0.62494969 12101553 -0.9968819 -0.063537151 -0.046792191 0.066655323
2.490932 -0.061691046 0.62116045 12232369 -0.97289336 -0.11127403 -0.20272306 0.073632799
2.5089188 -0.043265551 0.62507474 12100783 -0.9924553 -0.033349957 -0.11798424 0.065781638
2.5093563 -0.024657464 0.62513727 11904174 -0.99867052 -0.051000591 -0.0074916487 0.046902183
2.4922354 -0.0062552411 0.62134671 11904431 -0.9901458 -0.134075 0.040438246 0.055843089
2.4926698 0.01222335 0.62140876 12101298 -0.98651654 0.14629924 -0.073360436 0.065598533
2.5106688 0.031166798 0.62532479 12166576 -0.93899262 0.33149108 -0.091687232 0.0419368
2.5111063 0.049774893 0.62538737 11904174 -0.96631199 0.25448504 -0.038451824 0.0523508
2.5115438 0.068382971 0.62544984 11903405 -0.9913522 -0.13046011 -0.014174126 0.044213347
2.511981 0.086991057 0.62551242 11903405 -0.99688244 -0.077038817 -0.017043808 0.040562157
2.4948421 0.10461636 0.62171924 11706795 -0.99549878 0.026496524 -0.090994976 0.041285053
2.512856 0.12420723 0.62563747 11706793 -0.97623312 0.14551117 -0.16060968 0.045283314
2.5132935 0.14281532 0.62569994 11771306 -0.96824574 0.098154545 -0.22992593 0.049782474
2.513731 0.16142341 0.62576246 11706025 -0.9710173 -0.012235108 -0.23869579 0.038704943
2.4965796 0.17853074 0.62196761 11443619 -0.98778915 -0.0012123727 -0.15579209 0.037860554
2.514606 0.19863959 0.62588751 11705513 -0.9997682 -0.0069074123 -0.020393709 0.039617456
2.5150435 0.21724768 0.62595004 11639719 -0.99462599 0.075738519 -0.070589833 0.05208303
2.4978828 0.23396659 0.62215382 11508133 -0.98798978 0.085938014 -0.12841707 0.052005425
2.5159183 0.25446385 0.62607509 11442851 -0.98288393 0.11974537 -0.14000101 0.049036443
2.5163558 0.27307194 0.62613761 11377312 -0.99416339 0.076865323 -0.075702548 0.04269306
2.5167933 0.29168004 0.62620014 11311517 -0.99789059 -0.046007607 -0.045800399 0.018398311
2.5172307 0.31028813 0.62626266 11180449 -0.98433942 0.1655153 -0.060667686 0.023024764
2.5176682 0.32889616 0.62632519 11114658 -0.98364341 0.16864185 -0.063289717 0.031658232
2.5185432 0.36611232 0.62645024 10851484 -0.99556929 -0.030378141 -0.088988766 0.041326266
2.5189807 0.38472041 0.62651271 10784664 -0.98059398 -0.14497933 -0.13197182 0.020966211
2.5194182 0.40332851 0.62657529 10915996 -0.9935509 -0.10494279 -0.042938355 0.023519862
2.5198555 0.4219366 0.62663776 10719131 -0.9988606 0.0095789237 0.04675249 0.028845046
2.520293 0.44054469 0.62670034 10718869 -0.97232968 0.20057355 0.11977173 0.023419091
2.5224805 0.53358519 0.62701291 10389904 -0.99259907 -0.1075163 0.05645651 0.038625617
2.522918 0.55219328 0.62707543 10193038 -0.98820919 -0.10696399 0.10955089 0.040954635
2.5233555 0.57080138 0.62713796 10126993 -0.99381852 0.068192028 0.087605633 0.019333687
2.5237927 0.58940941 0.62720048 10061198 -0.99890792 0.025072156 0.039426241 0.028487321
2.5242302 0.6080175 0.62726301 9929612 -0.99757087 0.069130778 0.0085657546 0.034951147
2.5246677 0.6266256 0.62732553 9995405 -0.98879266 0.14700185 -0.026069503 0.037728436
2.5251052 0.64523369 0.62738806 9929866 -0.98964429 0.067923903 -0.12645388 0.030052356
2.5259802 0.68244988 0.62751311 9797767 -0.99495661 -0.099773161 -0.010325551 0.027602568
2.5264177 0.70105797 0.62757558 9731974 -0.99474174 0.099302106 -0.025060082 0.041342955
2.5268552 0.71966606 0.62763816 9600899 -0.982723 0.17535348 -0.059216939 0.029527003
2.52773 0.75688225 0.62776321 9468550 -0.99161911 0.030323364 -0.12558697 0.038534902
2.5281675 0.77549028 0.62782568 9205891 -0.97925097 -0.11713384 -0.16537008 0.025587047
2.528605 0.79409838 0.62788826 9271682 -0.97785419 0.087713577 -0.19001997 0.019387152
2.5290425 0.81270647 0.62795073 9008764 -0.97318637 0.14159426 -0.18127166 0.01644123
2.3962624 -1.3189657 0.63746965 10916499 -0.91824383 -0.23162146 0.32121608 0.062872775
2.3966849 -1.3009975 0.63753003 8818321 -0.95187467 -0.16851214 0.25600463 0.041997563
2.3975298 -1.2650609 0.63765079 11181209 -0.98342764 -0.10352059 0.14884087 0.022498436
2.3815968 -1.238876 0.63387078 11246745 -0.99220878 -0.087891676 0.088299729 0.027142506
2.3820164 -1.2210295 0.63393074 11312797 -0.99116415 -0.07078626 0.11217385 0.036349218
2.3824358 -1.2031832 0.63399071 11509664 -0.96832329 0.17606343 0.17706436 0.070576429
2.3992195 -1.193188 0.63789225 11772068 -0.92304468 0.33785558 0.18396255 0.069535568
2.4004867 -1.1392829 0.63807338 12101033 -0.93529743 -0.10457426 -0.33805761 0.092062443
2.3845336 -1.1139512 0.63429052 12627117 -0.80772418 0.25449169 -0.53180414 0.075747706
2.4013317 -1.1033465 0.63819414 12430514 -0.80947661 0.36057073 -0.46339664 0.10515774
2.4538891 -0.97907418 0.63246244 12957373 -0.98629957 0.15713771 -0.050209738 0.041523721
2.4543204 -0.96072507 0.63252413 12957887 -0.9903388 0.0014976437 -0.13866082 0.040706098
2.4556146 -0.90567774 0.63270909 13351620 -0.96376407 0.20306437 -0.1729847 0.023898071
2.4560461 -0.88732857 0.63277072 13220032 -0.97418958 0.098836727 -0.20294312 0.023823019
2.4564774 -0.86897951 0.63283235 13088959 -0.98722905 0.10473779 -0.12003711 0.034851797
2.4569087 -0.8506304 0.63289404 13154752 -0.98978359 0.14001915 -0.026891673 0.034154292
2.4573402 -0.83228123 0.63295567 13285827 -0.9928838 0.11887383 -0.0071281642 0.059025582
2.4577715 -0.81393212 0.63301736 13417413 -0.99659455 0.036655389 -0.073862456 0.06753777
2.4586344 -0.7772339 0.63314062 13351877 -0.9997927 0.017454186 0.010484965 0.050445497
2.4590657 -0.75888485 0.63320225 13351877 -0.97038859 0.24020855 0.025414623 0.04699016
2.459497 -0.74053568 0.63326395 13221059 -0.99549544 0.090864487 0.027065035 0.030142605
2.4773827 -0.72703147 0.63729018 13483463 -0.9992795 0.03535391 0.013806388 0.030471273
2.4603598 -0.70383751 0.63338727 13483206 -0.99674588 0.080126785 -0.0087938234 0.04352542
2.4607911 -0.68548834 0.6334489 13417413 -0.9820385 0.18184832 0.050315168 0.050392196
2.4786859 -0.67159575 0.6374765 13286084 -0.97373348 0.22263306 -0.04772472 0.04256735
2.4791205 -0.65311712 0.63753861 13483464 -0.99592471 0.069453463 -0.057535328 0.055259276
2.4795549 -0.63463849 0.63760066 13351878 -0.96071917 -0.094149463 -0.26106441 0.031501938
2.4625168 -0.6120919 0.63369554 13417670 -0.96968198 -0.13348962 -0.20468865 0.060006872
2.4629481 -0.59374279 0.63375717 13220292 -0.99625331 -0.041565638 0.075840056 0.085951507
2.4633796 -0.57539368 0.63381881 13549508 -0.99669248 0.012715631 0.08026471 0.058054045
2.4812925 -0.56072408 0.63784903 13286084 -0.99666589 0.044979785 0.068072669 0.062815204
2.4642422 -0.53869545 0.63394213 13220294 -0.9893555 0.14509884 -0.011046007 0.051599815
2.4646738 -0.52034634 0.63400376 13351365 -0.98523927 0.13162245 -0.1094493 0.045410048
2.4825957 -0.5052883 0.63803524 13285827 -0.96697015 0.15888651 -0.1993084 0.044853587
2.4830303 -0.48680973 0.63809735 13351365 -0.97122538 0.15194263 -0.18339767 0.055212632
2.4834647 -0.46833113 0.63815945 13088705 -0.95458341 0.074738674 -0.28841767 0.049579099
2.4838991 -0.44985253 0.63822156 13088448 -0.9615224 -0.011301458 -0.27449405 0.052472018
2.4843335 -0.43137392 0.63828361 13153986 -0.98478043 -0.026807528 -0.17172325 0.054722972
2.4847679 -0.41289532 0.63834572 13022400 -0.98812896 0.13619325 -0.071081445 0.058815096
2.4676933 -0.39190257 0.63443536 12957119 -0.96177948 0.26239941 -0.078274503 0.078892224
2.4681246 -0.37355345 0.63449699 12825276 -0.94534427 0.30607796 -0.11243001 0.08608982
2.4869401 -0.32050231 0.63865614 12825276 -0.94262135 -0.33316889 0.02152805 0.050286051
2.4698503 -0.30015701 0.63474363 13087678 -0.99540043 -0.094118245 -0.017881162 0.08572679
2.4878089 -0.28354514 0.6387803 13022655 -0.98870724 0.13343082 -0.068221994 0.076695614
2.4882433 -0.2650665 0.6388424 12825534 -0.98250055 0.077422127 -0.16940653 0.082358405
2.4711444 -0.24510963 0.63492852 12694464 -0.98214453 -0.13377519 -0.13227378 0.055808004
2.4891121 -0.22810929 0.63896662 12430776 -0.98705196 -0.055326752 -0.15055692 0.07528688
2.4899812 -0.19115208 0.63909072 12168374 -0.99492925 0.050353933 -0.0870649 0.075916119
2.4904156 -0.17267348 0.63915282 12168374 -0.99137479 -0.073464759 -0.10853104 0.071695626
2.49085 -0.15419488 0.63921493 12102581 -0.97142166 0.20890863 -0.11268181 0.062841095
2.493022 -0.061801888 0.63952535 12100783 -0.98345917 0.065280288 -0.16895738 0.076643862
2.4934566 -0.043323286 0.63958746 12100783 -0.99455702 0.076593496 -0.070638679 0.071258761
2.4943254 -0.0063660834 0.63971162 11904432 -0.97101015 -0.23717077 -0.029822111 0.040044643
2.4947598 0.012112509 0.63977367 11969965 -0.98249835 -0.10586435 -0.15326345 0.073781639
2.4951942 0.03059111 0.63983577 11969965 -0.92727834 0.35454068 -0.12023226 0.054709438
2.4956286 0.049069718 0.63989788 11838126 -0.94390315 0.32436252 -0.061934303 0.07672172
2.5357218 0.35017037 0.63024884 11179168 -0.98844236 0.096170194 -0.1171881 0.034984298
2.5383649 0.46259579 0.63062662 10718617 -0.98635447 0.12468434 0.10751133 0.043751374
2.5388052 0.48133335 0.63068956 10587542 -0.9790042 0.10016072 0.17753485 0.05255108
2.5392458 0.50007099 0.6307525 10390417 -0.98561251 -0.048691776 0.16185561 0.055111039
2.5396864 0.51880854 0.63081545 10389652 -0.99005097 -0.11480545 0.081356384 0.053101443
2.5432105 0.66870916 0.63131911 9863560 -0.99016649 -0.05909073 -0.12680182 0.029347716
2.5449727 0.74365944 0.63157099 9535104 -0.98759562 0.10348299 -0.11809387 0.033751145
2.5471752 0.83734733 0.63188577 9074305 -0.9822107 0.18596336 -0.026072264 0.036906566
2.5476158 0.85608494 0.63194871 9008510 -0.99808735 -0.033218149 0.052137125 0.049136385
2.5480561 0.8748225 0.63201171 8876926 -0.99279457 -0.070084944 0.097196154 0.044036135
2.5484967 0.89355999 0.63207465 8679547 -0.99579519 0.062024239 0.067416117 0.04529871
2.5489373 0.91229767 0.6321376 8547448 -0.97252697 0.22749621 0.049363565 0.04014561
2.5493777 0.93103528 0.63220054 8612728 -0.98430043 0.16394307 -0.065386415 0.027532766
2.5498183 0.94977283 0.63226348 8546421 -0.99985361 0.016233817 0.0054130112 0.021992514
2.5502586 0.96851051 0.63232642 8350321 -0.99859887 0.051697571 -0.011300185 0.025154317
2.4460428 -1.4012138 0.64928073 10194568 -0.91848713 -0.14995439 0.36591691 0.025274662
2.4291148 -1.3733575 0.64526457 10719370 -0.86350405 -0.20113501 0.46249917 0.036309723
2.4295435 -1.3551378 0.64532572 10654354 -0.85795462 -0.28515029 0.42732108 0.037669275
2.4144785 -1.2920184 0.64166993 12294791 -0.92070293 -0.20327149 0.33314678 0.037911527
2.4170315 -1.1834319 0.64203471 11707043 -0.87115037 0.467641 0.14969636 0.060868952
2.4174569 -1.1653341 0.64209557 11904424 -0.94342011 0.32216141 0.078553103 0.083985873
2.4191589 -1.0929431 0.64233881 12562100 -0.75943369 0.42695227 -0.49088922 0.089203507
2.4195843 -1.0748454 0.64239961 12496307 -0.88931072 0.28314129 -0.3591066 0.075994752
2.4200099 -1.0567477 0.64246041 12431025 -0.90006161 0.17675804 -0.39830366 0.05402153
2.4368253 -1.0454043 0.64636642 12430765 -0.92949539 0.24973723 -0.27142164 0.055432592
2.4372535 -1.0271846 0.64642769 12299179 -0.97547686 0.15399139 -0.15726267 0.049972709
2.4376817 -1.008965 0.64648885 12496561 -0.99140316 0.11051594 -0.070043176 0.034496468
2.4381104 -0.99074531 0.64655012 12496818 -0.96122175 0.21012327 -0.17860866 0.038350917
2.4385386 -0.97252584 0.64661127 12957887 -0.97484565 0.075490415 -0.20970738 0.039482426
2.4389668 -0.95430613 0.64667255 13154750 -0.99683124 -0.021358127 -0.07662496 0.038015932
2.439395 -0.93608654 0.64673376 13220545 -0.99801058 0.0081603555 -0.06251651 0.031847563
2.4398236 -0.91786689 0.64679497 13286084 -0.99089688 0.11945822 -0.062073935 0.030034609
2.4402518 -0.89964724 0.64685619 13154752 -0.98492664 0.11129668 -0.13241071 0.028261364
2.44068 -0.88142759 0.6469174 13154752 -0.98053706 0.080783419 -0.17894466 0.029242873
2.4411087 -0.863208 0.64697862 13154752 -0.97541314 0.19488128 -0.10291056 0.031603813
2.4415369 -0.84498841 0.64703983 13023166 -0.97764176 0.20986001 -0.013245211 0.03838291
2.442822 -0.79032946 0.64722347 13286084 -0.99929464 0.012631904 0.035365619 0.048013199
2.5035863 -0.35971469 0.64250547 13087679 -0.9427141 0.31806889 -0.10060994 0.087471582
2.5040238 -0.34110659 0.64256793 13087679 -0.99389642 0.10969967 0.011659258 0.091561653
2.507086 -0.21084996 0.64300561 12299190 -0.96124178 0.27559403 0.0078834677 0.072724782
2.508836 -0.13641761 0.64325571 12233397 -0.92976022 0.365706 -0.042485595 0.052625936
2.5092735 -0.11780952 0.64331824 12233396 -0.9749645 0.18292405 0.12642379 0.047203347
2.509711 -0.099201433 0.64338076 12430518 -0.98905659 -0.037835564 0.14260283 0.057187513
2.5101483 -0.08059334 0.64344329 12101553 -0.97544032 -0.21964192 -0.016540088 0.077862456
2.5114608 -0.024769081 0.6436308 11969712 -0.99325675 -0.11592343 0.0016969295 0.045961883
2.5136483 0.068271346 0.64394349 11837612 -0.98789972 -0.14563017 0.053347766 0.046749562
2.4964974 0.086026929 0.6400221 12100784 -0.99456424 -0.1030187 -0.015135765 0.050468277
2.496932 0.10450552 0.64008415 11641002 -0.98580366 0.028031612 -0.16554573 0.058489066
2.5149605 0.12409561 0.644131 11706540 -0.95001048 0.055856541 -0.30718094 0.040285256
2.515398 0.1427037 0.64419359 11574954 -0.95583194 0.049759023 -0.28967106 0.046764668
2.4982352 0.15994133 0.64027041 11574439 -0.97312307 0.020748802 -0.22934908 0.043705322
2.516273 0.17991988 0.64431858 11443621 -0.98514438 0.11254778 -0.12970608 0.033566419
2.5167105 0.19852796 0.64438111 11705766 -0.98995763 0.12527549 -0.065497652 0.047071744
2.517148 0.21713606 0.64444363 11508644 -0.99825573 0.052799117 -0.026415572 0.048894931
2.4999728 0.23385575 0.64051872 11377061 -0.99384779 0.081894897 -0.074564539 0.0567878
2.5180228 0.25435224 0.64456868 11311267 -0.98647833 0.12602393 -0.10477862 0.048691455
2.5184603 0.27296034 0.64463121 11114654 -0.98428059 0.1663748 -0.059255324 0.034115493
2.5188978 0.29156843 0.64469373 11245472 -0.99660075 0.052813571 0.063227668 0.0079980548
2.5193353 0.31017652 0.64475626 10983070 -0.9892875 0.091186762 0.11399662 0.0085223224
2.5197728 0.32878456 0.64481878 11179933 -0.99208748 0.092190661 0.085225075 0.017949069
2.5378411 0.35005799 0.64887124 11048347 -0.99801612 0.027266594 -0.056749068 0.027778609
2.5206478 0.36600071 0.64494377 10917275 -0.99814165 -0.041252628 -0.044849768 0.029009363
2.5210853 0.38460881 0.64500636 10850968 -0.99355263 -0.10416553 -0.044752855 0.023693021
2.5215228 0.4032169 0.64506882 10850714 -0.99822783 -0.0121058 0.058263347 0.0078502223
2.52196 0.42182499 0.64513141 10588059 -0.99508482 0.070632838 0.069406487 0.022388324
2.5223975 0.44043308 0.64519387 10653335 -0.98624903 0.16461362 -0.01467403 0.046827879
2.5404842 0.46248341 0.64924896 10521488 -0.97965968 0.17957501 -0.089552902 0.051201347
2.5409245 0.48122096 0.6493119 10456210 -0.98800886 0.12795576 -0.086405389 0.056396671
2.52371 0.49625736 0.64538151 10521492 -0.9970811 -0.071191192 0.027588876 0.051741946
2.5418057 0.51869619 0.64943784 10520977 -0.99657226 -0.079483591 0.022938805 0.042786442
2.524585 0.53347355 0.6455065 10258320 -0.99100244 -0.07692302 0.10953113 0.035352569
2.5250225 0.55208164 0.64556903 10258320 -0.98465979 -0.11830801 0.128251 0.021926792
2.52546 0.57068974 0.64563155 10192527 -0.99116987 0.056556214 0.11993188 0.0088941948
2.5435677 0.59364647 0.64968961 10060941 -0.99317443 0.022355564 0.114476 0.0094671864
2.5263348 0.60790586 0.6457566 10126480 -0.9927702 0.0018632786 0.12001623 0.0089450777
2.5267723 0.62651396 0.64581913 9798026 -0.99962997 0.02599814 0.0080012018 0.026166277
2.5272098 0.64512205 0.64588165 9732487 -0.99747908 0.051951542 -0.048337713 0.020253655
2.5276473 0.66373014 0.64594418 9863560 -0.9993158 0.026801649 -0.025489435 0.022199407
2.5280848 0.68233824 0.6460067 9666181 -0.99957818 -0.015332091 0.024666507 0.017226145
2.5285223 0.70094633 0.64606923 9666181 -0.99432969 0.046928402 0.095426477 0.020271858
2.5289598 0.71955442 0.64613169 9469315 -0.991561 0.097013712 0.085995346 0.01734693
2.5298345 0.75677061 0.64625674 9337475 -0.99840581 -0.031518299 -0.046822906 0.028973948
2.530272 0.77537864 0.64631933 9205889 -0.99385828 -0.099625632 -0.048171844 0.025067465
2.5307095 0.79398674 0.6463818 9271682 -0.99644393 0.060268261 -0.058883905 0.017149583
2.531147 0.81259483 0.64644438 9139835 -0.97874743 0.17196311 -0.11172369 0.021127429
2.5315845 0.83120292 0.64650685 9074305 -0.96734053 0.25339654 -0.0065217093 0.022733873
2.532897 0.8870272 0.64669442 8679547 -0.99374807 0.024674347 0.10888509 0.053673573
2.3995621 -1.2651687 0.65550846 11442841 -0.91594636 -0.24596946 0.31708249 0.033058196
2.3999844 -1.2472004 0.6555689 11312546 -0.97074044 -0.15299527 0.18508235 0.029945092
2.4004068 -1.2292321 0.65562922 11247004 -0.95840228 0.097615294 0.26820946 0.056331247
2.3844543 -1.2032902 0.65172738 11640735 -0.93925291 0.2287825 0.25585654 0.068457775
2.4012518 -1.1932957 0.65574998 11771809 -0.93263572 0.28918153 0.21578872 0.077442661
2.402519 -1.1393907 0.65593112 12429746 -0.94192511 -0.19527878 -0.27320933 0.071536101
2.3865521 -1.1140583 0.65202719 12232617 -0.90751576 0.19481546 -0.37210503 0.11443675
2.4033639 -1.1034542 0.65605181 12299439 -0.81883895 0.35115281 -0.45408654 0.10191631
2.4042087 -1.0675178 0.65617257 12431027 -0.7845391 0.3048766 -0.53995246 0.077465855
2.4594157 -0.83239132 0.65119189 13220291 -0.9899115 0.08370956 0.11431537 0.041890908
2.459847 -0.81404221 0.65125352 13154498 -0.99337351 0.018652527 0.11340706 0.050202608
2.4607098 -0.77734399 0.6513769 13286084 -0.99614477 0.064509951 0.059448551 0.041935809
2.4611411 -0.75899494 0.65143853 13154752 -0.98860419 0.14179271 0.050562218 0.033795509
2.4615724 -0.74064577 0.65150017 13286336 -0.99505979 0.091501638 -0.038516358 0.029778736
2.4620039 -0.72229666 0.6515618 13352131 -0.99914598 0.023954671 0.033668015 0.021870095
2.4624352 -0.7039476 0.65162343 13483206 -0.99768037 0.035196628 0.058267418 0.022930715
2.4628665 -0.68559843 0.65168512 13351877 -0.98042643 0.19663465 0.0099443356 0.027289074
