# .PCD v0.7 - Point Cloud Data file format
VERSION 0.7
FIELDS x y z rgb normal_x normal_y normal_z curvature
SIZE 4 4 4 4 4 4 4 4
TYPE F F F U F F F F
COUNT 1 1 1 1 1 1 1 1
WIDTH 504
HEIGHT 1
VIEWPOINT 0 0 0 1 0 0 0
POINTS 504
DATA ascii
0.72507679 -0.37644714 -0.011923291 11045264 -0.10422969 -0.01185926 0.99448258 0.0020759532
0.73108852 -0.37694183 -0.010659784 10913429 -0.085978188 -0.0059935753 0.996279 0.0017845797
0.7516948 -0.37838256 -0.011778533 11177110 -0.075285017 -0.013728899 0.99706757 0.0011665482
0.63519287 -0.36534852 -0.017397746 10256517 -0.093464501 -0.026775766 0.9952625 0.0015074508
0.64473158 -0.36517292 -0.018603727 10255750 -0.065563485 -0.0036548281 0.99784172 0.0028742722
0.65634692 -0.36431035 -0.016930364 10388360 -0.077979848 -0.024181306 0.9966616 0.0015574122
0.66976607 -0.36921814 -0.017433524 10781060 -0.075855531 0.0019098597 0.99711704 0.0021441649
0.67876923 -0.36683044 -0.015057355 10387592 -0.098128319 0.018122325 0.99500871 0.0017145553
0.68224669 -0.3636052 -0.013451844 10914186 -0.10187506 -0.0043710084 0.99478757 0.0025594798
0.6947884 -0.36370352 -0.013976023 10781835 -0.073316738 0.0058660661 0.99729145 0.0023491946
0.7063179 -0.36614147 -0.014400259 10782094 -0.088063106 -0.012513374 0.99603629 0.0021227414
0.71622747 -0.36539114 -0.011860736 11176591 -0.089950122 -0.0053638951 0.9959318 0.0023759296
0.73110861 -0.36638534 -0.010700636 10980495 -0.10248163 -0.018253515 0.99456745 0.002303665
0.60767794 -0.35274583 -0.019841813 10059652 -0.090168864 -0.0046493835 0.99591565 0.0013561846
0.62016469 -0.35464296 -0.019853726 10388099 -0.094264962 -0.018720996 0.99537116 0.001966683
0.6317637 -0.35184991 -0.018552102 10256770 -0.087264471 -0.013924281 0.99608785 0.0016810616
0.64247847 -0.35858849 -0.016953602 10192259 -0.087030001 -0.027984837 0.99581259 0.0016208594
0.65529513 -0.35463747 -0.01657103 10387847 -0.07692311 -0.0096904542 0.99698997 0.0015544026
0.66904336 -0.35789165 -0.016941547 10454147 -0.075279094 -0.0048472607 0.99715078 0.0020278622
0.67093813 -0.35900456 -0.015400663 10585474 -0.10634185 -0.0077687604 0.99429929 0.0019516982
0.68445909 -0.35676241 -0.015506439 10717068 -0.082103573 -0.0024442314 0.99662089 0.0016409522
0.69872653 -0.35209271 -0.012473449 11372684 -0.064169385 -0.011280012 0.99787527 0.0023544661
0.71716535 -0.35521531 -0.01192335 11110801 -0.095443889 -0.019158691 0.9952504 0.0017695061
0.72124112 -0.35008249 -0.012850344 11111056 -0.11862565 -0.025463918 0.99261248 0.0011640893
0.73206562 -0.35601357 -0.010789804 11243412 -0.10733219 -0.019186402 0.99403811 0.0018089511
0.74835455 -0.35582587 -0.010158002 11570327 -0.079485305 -0.029728225 0.99639267 0.0014173522
0.60695446 -0.34067431 -0.019731358 10519432 -0.082396276 -0.032110054 0.99608225 0.0021633261
0.63485539 -0.34309801 -0.018668391 10453122 -0.090556346 -0.012061756 0.99581832 0.0016941524
0.64386368 -0.34830904 -0.017499082 10322821 -0.085909151 0.0030237648 0.99629843 0.0015734308
0.65573221 -0.34456375 -0.016244002 10716552 -0.07441327 0.0051843082 0.99721402 0.00099871412
0.66972649 -0.34712118 -0.01704219 10650763 -0.065181114 0.0017257372 0.99787199 0.0012807848
0.67094326 -0.34717855 -0.01495035 11045259 -0.086902134 -0.01176647 0.99614739 0.0012659405
0.68506712 -0.34676585 -0.014903327 10914188 -0.092140034 -0.016500765 0.99560934 0.0014594296
0.69212174 -0.34902009 -0.014010191 10847630 -0.079607941 -0.017483646 0.99667293 0.0010562879
0.70732707 -0.3484304 -0.013773471 10978953 -0.1020067 -0.018100435 0.99461901 0.0011201031
0.71849209 -0.34227341 -0.012043379 11243158 -0.083892182 -0.029009616 0.9960525 0.0015211621
0.73141438 -0.34376273 -0.010191217 11177365 -0.11203799 -0.020819528 0.99348587 0.0012356379
0.61618817 -0.33353323 -0.017449751 10650758 -0.076522239 -0.016350666 0.99693382 0.0020918001
0.62119985 -0.33019689 -0.019252732 10979729 -0.077470183 -0.012010993 0.99692231 0.0019462038
0.63288784 -0.33333832 -0.018545918 10519430 -0.087319799 -0.015234319 0.99606383 0.0015063973
0.64578301 -0.33670092 -0.017957814 10519946 -0.088752829 -0.0031999375 0.99604851 0.0013019679
0.65803552 -0.33493337 -0.016523501 10913678 -0.084849194 -0.01340377 0.99630368 0.00096432801
0.66850388 -0.33423558 -0.016316399 10453129 -0.079719454 -0.016371507 0.99668288 0.00092598284
0.67198563 -0.33432996 -0.014827356 11045517 -0.10047933 -0.025446568 0.99461371 0.0011876989
0.68141323 -0.33989146 -0.015668273 10978190 -0.07796526 -0.016221412 0.99682409 0.00073051016
0.69624132 -0.3359715 -0.012427986 11177106 -0.087968953 -0.041013651 0.9952786 0.0010188901
0.70753217 -0.33691385 -0.013650805 11045518 -0.094779074 -0.034028284 0.99491656 0.001576322
0.71691328 -0.33255258 -0.011292778 11308693 -0.088609874 -0.03386851 0.99549049 0.0015229073
0.73257381 -0.33624691 -0.010422938 11178134 -0.11078789 -0.021256056 0.99361676 0.0014012988
0.60889965 -0.3225317 -0.019744918 10651013 -0.092343614 -0.0056918897 0.99571097 0.0012828304
0.61979908 -0.3240881 -0.018460289 10914959 -0.079900928 -0.011681418 0.99673438 0.0018591739
0.62318116 -0.32330295 -0.019953489 10452615 -0.088574298 -0.033889681 0.99549288 0.0012381179
0.63073736 -0.32556504 -0.017018214 10717069 -0.080515027 -0.0098186843 0.99670506 0.0019382685
0.64660424 -0.32730252 -0.018002339 10585226 -0.088885568 -0.01071632 0.9959842 0.0010781923
0.65546131 -0.32041666 -0.016573668 10584714 -0.078538798 -0.019532802 0.99671966 0.00063954521
0.66552335 -0.32455382 -0.015142411 11111568 -0.088528171 -0.031952292 0.99556106 0.00093938428
0.68334162 -0.32878384 -0.014313824 11176335 -0.10314283 -0.034232683 0.99407732 0.00098392903
0.69383055 -0.32359025 -0.012684748 11045522 -0.097072639 -0.034385242 0.99468315 0.0010944303
0.70686096 -0.32798955 -0.013233244 11046545 -0.089171655 -0.032801364 0.99547607 0.0016647244
0.7158432 -0.3214809 -0.010773554 11506583 -0.064418927 -0.030259471 0.99746406 0.0010744077
0.72069943 -0.32632557 -0.012222499 11373719 -0.088754453 -0.022727974 0.99579424 0.0024617449
0.60975045 -0.31204474 -0.019644514 10519427 -0.069589108 -0.008562047 0.99753898 0.0012568892
0.62136507 -0.31647328 -0.018754378 10848392 -0.086869046 0.00045769475 0.99621964 0.0015803765
0.63454902 -0.31759357 -0.01858481 10584970 -0.080820143 -0.028118363 0.99633199 0.0012428599
0.64566195 -0.31729972 -0.017361917 10651020 -0.080073908 -0.029891118 0.99634063 0.0010375441
0.65813386 -0.31468594 -0.016404487 10651018 -0.094351202 -0.027080011 0.99517059 0.00095566775
0.66862291 -0.3190887 -0.016108721 10651015 -0.085871436 -0.0069083516 0.99628228 0.00038332815
0.67349136 -0.3157708 -0.014649704 11111818 -0.10254846 -0.033570692 0.99416137 0.0012474146
0.68438905 -0.31624022 -0.013703664 11112078 -0.1048214 -0.028482972 0.99408305 0.0011244537
0.70194918 -0.31768087 -0.011144012 11045010 -0.08529982 -0.037123702 0.99566346 0.001444094
0.72144073 -0.31772193 -0.012351185 11242390 -0.07174883 -0.023763185 0.99713963 0.0021338882
0.73634595 -0.31902456 -0.011570603 11505564 -0.092814304 0.0036401211 0.99567682 0.0010167342
0.61014265 -0.30137664 -0.019355193 10584966 -0.074591242 -0.032113023 0.99669701 0.00077406509
0.62167597 -0.30579206 -0.018787688 10519941 -0.10749558 -0.016526243 0.99406821 0.0012368973
0.63557339 -0.30495477 -0.017991548 10847625 -0.078631505 -0.015554928 0.99678242 0.0011711842
0.6452105 -0.30885464 -0.016935371 10847887 -0.082878001 -0.028884986 0.99614102 0.001256382
0.65892315 -0.30480939 -0.014987603 11308948 -0.10202231 -0.02764442 0.99439794 0.0015801474
0.66659141 -0.30885011 -0.015053324 11111309 -0.08983659 -0.023641627 0.99567586 0.00076306355
0.68107569 -0.30467683 -0.014926612 10979472 -0.11223686 0.0083434451 0.99364644 0.0014467197
0.69731313 -0.30662394 -0.011914034 11440277 -0.097059324 -0.018049989 0.99511492 0.0011742158
0.70306444 -0.30506265 -0.011355594 11570065 -0.089791358 -0.0067405887 0.99593776 0.0017630446
0.71934891 -0.30821779 -0.011387885 11308948 -0.061842449 -0.0077898279 0.99805558 0.002252474
0.72015762 -0.30256855 -0.011594653 11177362 -0.057389617 0.011753131 0.99828267 0.0021989488
0.73330015 -0.30908921 -0.010261744 11439765 -0.091070838 -0.0045491685 0.99583405 0.001422212
0.59851009 -0.29179397 -0.019829646 10651015 -0.073417157 -0.014301081 0.99719882 0.00194439
0.60802484 -0.29247591 -0.018146619 10520199 -0.073561542 -0.007277126 0.99726415 0.001555513
0.62353265 -0.29635143 -0.019209169 10782597 -0.10062974 -0.014440989 0.9948191 0.0013139297
0.63205421 -0.29500297 -0.017011859 10781321 -0.084784649 -0.0053833006 0.99638474 0.0013627836
0.64624161 -0.2957103 -0.017358327 10782089 -0.082006589 -0.008122161 0.99659872 0.0012189128
0.66428149 -0.29660368 -0.014766738 11111312 -0.086015262 -0.0024748342 0.99629074 0.00095959438
0.68684655 -0.29512393 -0.012466624 11506834 -0.10083841 -0.017410394 0.9947505 0.0013073268
0.69560909 -0.29463941 -0.011748023 11309206 -0.094806984 0.011409972 0.99543029 0.0019586051
0.70693678 -0.2902987 -0.012600571 11439253 -0.095288105 0.033958055 0.99487036 0.0016156527
0.71719068 -0.29580504 -0.010347694 11242901 -0.050144795 0.012108962 0.99866855 0.0016853332
0.59832066 -0.28288537 -0.019257702 10781322 -0.079667255 -0.036957372 0.99613619 0.0017665783
0.61049849 -0.28532189 -0.018827036 10586247 -0.071601167 -0.023437276 0.99715793 0.0019919337
0.62211657 -0.28383565 -0.017707989 10913928 -0.084614754 -0.020305689 0.99620682 0.0018340857
0.63377416 -0.28648996 -0.017770305 10781578 -0.078793772 -0.0061661834 0.99687183 0.0014158295
0.64623123 -0.28311086 -0.016666807 10913678 -0.080370344 -0.0024197157 0.99676216 0.0018799228
0.65844446 -0.28871009 -0.01730597 10847627 -0.07117933 0.00025317259 0.99746352 0.00095710496
0.66575474 -0.28503254 -0.01466922 11242643 -0.087683558 0.00087502616 0.99614799 0.0020815134
0.68461442 -0.28437877 -0.014375304 11111571 -0.093588881 0.016393252 0.99547595 0.0018673619
0.69350249 -0.28680766 -0.01347807 11177362 -0.10436852 0.036497533 0.99386877 0.0014948404
0.71373707 -0.2808148 -0.011750802 11572639 -0.062285721 -0.028901597 0.99763983 0.0018346107
0.72076249 -0.28798008 -0.011565208 11242129 -0.071290195 0.03283421 0.99691504 0.0013899145
0.73754716 -0.28927672 -0.011482 11373715 -0.084896266 0.0023315959 0.99638712 0.0015597807
0.58965904 -0.27202645 -0.019012377 9597557 -0.10761768 -0.05041327 0.99291337 0.0018891743
0.61113524 -0.27747378 -0.018751934 10455949 -0.067659758 -0.019398527 0.99751991 0.001765471
0.62422711 -0.27482757 -0.01913386 7624022 -0.10104308 -0.023044109 0.99461514 0.001626296
0.63370645 -0.27395666 -0.01711043 9927550 -0.079462387 -0.025388647 0.9965145 0.0028139111
0.64964515 -0.27611572 -0.016340151 10782601 -0.07549838 -0.03350639 0.99658287 0.0046615633
0.65772706 -0.2775664 -0.016815186 11045781 -0.065075822 -0.017405635 0.99772853 0.0011031374
0.66305 -0.27743095 -0.0154147 11112093 -0.084887922 -0.029457975 0.99595493 0.0046771136
0.67153585 -0.27356246 -0.014486216 10650251 -0.088239647 -0.031163754 0.99561167 0.0027644942
0.68619752 -0.2703248 -0.013810463 8479596 -0.091646992 -0.047449812 0.99466038 0.0028454601
0.6939671 -0.27413011 -0.014974266 9860225 -0.089433648 -0.020821489 0.9957751 0.0028335971
0.70667005 -0.27860299 -0.012291491 11242386 -0.099431612 0.0046324288 0.99503362 0.0028832487
0.71999663 -0.27028766 -0.010283545 10849176 -0.083438471 -0.046495967 0.99542761 0.0024945557
0.72426409 -0.27707884 -0.012701392 11637403 -0.080231339 -0.0086718751 0.99673855 0.0019798537
0.73450333 -0.27943268 -0.010175526 11505303 -0.085463293 -0.0088682109 0.99630189 0.0017800094
0.58670378 -0.26155108 -0.019148514 11045001 -0.08925049 -0.0443951 0.99501932 0.0027236531
0.59866208 -0.26273838 -0.018660381 11111821 -0.055366747 -0.055118665 0.99694359 0.0034797064
0.60964215 -0.26087299 -0.017469659 10979218 -0.041086022 -0.065940022 0.99697739 0.0029111044
0.61336219 -0.26420349 -0.019680269 11177358 -0.068097711 -0.037127726 0.99698758 0.0024570897
0.6228534 -0.26408321 -0.017966412 11965850 -0.10331973 -0.041829377 0.99376827 0.0022637828
0.6328935 -0.26423159 -0.01644858 10585221 -0.091017604 -0.049326528 0.99462694 0.003317076
0.64810133 -0.26974031 -0.018480718 10190460 -0.0687491 -0.030238777 0.99717563 0.0012113793
0.65506029 -0.26614186 -0.016338414 8939631 -0.078087159 -0.047607385 0.9958092 0.0027441017
0.66373289 -0.26901329 -0.015334144 10717567 -0.097349726 -0.066292338 0.99303997 0.0050226958
0.67758679 -0.26367548 -0.013540216 10979984 -0.08460895 -0.074581876 0.99361908 0.0029552483
0.69474566 -0.26228595 -0.01383958 12230052 -0.093476996 -0.057419449 0.99396431 0.0023653936
0.70593297 -0.26678514 -0.011797488 10847375 -0.087242611 -0.059277762 0.9944219 0.0024723827
0.72311682 -0.26787999 -0.012102216 8543840 -0.097116359 -0.056908973 0.99364471 0.001795642
0.73611754 -0.26779941 -0.010565609 8148584 -0.087575436 -0.040399976 0.99533832 0.0018868522
0.5638178 -0.25167134 -0.019665286 10651785 -0.061673779 -0.021488331 0.99786502 0.001657242
0.58752227 -0.25146276 -0.019051924 11111307 -0.095522754 -0.044158094 0.99444735 0.0027287609
0.59427267 -0.25083008 -0.016382232 10717837 -0.087459899 -0.053435449 0.99473387 0.003368964
0.60114276 -0.25269556 -0.019989341 10716297 -0.070121087 -0.033911794 0.99696189 0.00090424973
0.6132248 -0.2528486 -0.019036651 11045522 -0.068428211 -0.075130932 0.9948231 0.0022771868
0.6230883 -0.25611582 -0.017901458 11176854 -0.10217925 -0.062984951 0.99277002 0.0028784743
0.63558912 -0.25683999 -0.017309614 11307923 -0.0938548 -0.075998291 0.99268103 0.0036142753
0.64504725 -0.25619093 -0.015988892 11307155 -0.076129429 -0.058243368 0.99539542 0.0029087032
0.6552124 -0.25437602 -0.014109854 11571611 -0.089163929 -0.093931869 0.9915778 0.0038703475
0.66956127 -0.25842109 -0.015468568 11506071 -0.094246723 -0.064704262 0.99344397 0.0014892354
0.67346269 -0.25730529 -0.012404338 12097699 -0.11118679 -0.10607644 0.98812211 0.0040542195
0.6923117 -0.25505161 -0.012453496 11899811 -0.090337008 -0.074964747 0.99308592 0.0017559667
0.70526278 -0.2579065 -0.011381149 11834270 -0.078906626 -0.08168292 0.99352992 0.0017386184
0.71914184 -0.25802431 -0.010417461 12689828 -0.085956641 -0.058570575 0.9945758 0.0018841063
0.57701111 -0.2406227 -0.019538119 11635090 -0.1039649 -0.04005659 0.993774 0.0030361565
0.58742005 -0.24109235 -0.018563315 11241872 -0.10636707 -0.043066882 0.99339384 0.0022070748
0.59535313 -0.24333763 -0.016501471 11110801 -0.086590491 -0.064381629 0.99416155 0.0032010055
0.60411227 -0.24065913 -0.019309521 10912905 -0.062859453 -0.02871195 0.99760932 0.0004852954
0.61534983 -0.24381365 -0.016216516 11242900 -0.073229954 -0.080529146 0.99405861 0.0030748509
0.62375981 -0.24782388 -0.018994868 11044756 -0.087411404 -0.041829377 0.99529368 0.0021060202
0.63256598 -0.24513415 -0.015691482 11242389 -0.10285237 -0.053126704 0.99327683 0.0029435256
0.64212435 -0.24609153 -0.014378935 11439508 -0.080974154 -0.067023039 0.99446017 0.0036352791
0.65787518 -0.24725758 -0.012369081 12095894 -0.10089718 -0.1065694 0.98917276 0.004760412
0.66515619 -0.24439019 -0.013956532 11374232 -0.094801717 -0.058004912 0.99380487 0.0016008456
0.67535168 -0.24868962 -0.012301199 11637657 -0.078780748 -0.098563284 0.99200749 0.0024996679
0.68768448 -0.24944888 -0.011040404 11508636 -0.087999299 -0.067024246 0.99386311 0.0017708277
0.69114411 -0.24476987 -0.011811122 12031387 -0.073181055 -0.039307721 0.99654371 0.0020997734
0.70600331 -0.24936366 -0.011518747 11900059 -0.078545958 -0.052994743 0.99550092 0.0017746371
0.71880329 -0.24317619 -0.010025084 11900833 -0.082984447 -0.053426735 0.99511766 0.00097815681
0.73570287 -0.24961622 -0.010085076 12096933 -0.092409022 -0.058428157 0.99400538 0.0008835753
0.57781571 -0.23070525 -0.019443169 11045522 -0.10119931 -0.063845396 0.99281543 0.0015046456
0.58685458 -0.23061696 -0.017878965 11111565 -0.1151807 -0.042653732 0.99242836 0.0021950116
0.5971024 -0.23342532 -0.016788498 10980238 -0.10140014 -0.012730831 0.99476427 0.0015720568
0.60711771 -0.23103896 -0.017371632 11044750 -0.082685605 -0.038090669 0.99584746 0.0019671118
0.61997181 -0.23430362 -0.014848426 11506067 -0.089286983 -0.060140111 0.99418861 0.002734313
0.62460256 -0.23512107 -0.01636585 11242640 -0.094571441 -0.041768163 0.99464148 0.0019838661
0.63107127 -0.2388552 -0.016359329 11241615 -0.1086678 -0.037824418 0.99335825 0.0020082821
0.64449197 -0.23515318 -0.015170719 11439765 -0.087176822 -0.048963048 0.99498886 0.0024026174
0.65556508 -0.23489551 -0.013784523 11505814 -0.090113014 -0.045271069 0.99490207 0.0016372561
0.67451215 -0.23708865 -0.011651106 11767962 -0.071296498 -0.039119035 0.99668777 0.001316834
0.70573658 -0.2376679 -0.011209667 11965340 -0.10253034 -0.034176219 0.99414259 0.0019847434
0.71156138 -0.23000126 -0.010171235 12096157 -0.097165227 -0.030781586 0.99479216 0.0016783506
0.56618726 -0.22246575 -0.01938571 11241612 -0.080807023 -0.05221213 0.99536133 0.00078388856
0.57657725 -0.22274888 -0.018573299 11242894 -0.087800696 -0.045699589 0.99508923 0.00072933058
0.58813041 -0.22070579 -0.017978802 11111058 -0.097488604 -0.038943592 0.99447447 0.00090856128
0.59839231 -0.223351 -0.016883031 11177109 -0.089482307 -0.038737968 0.99523479 0.0015148761
0.60661829 -0.22180703 -0.016943969 11111056 -0.091428943 -0.032595351 0.995278 0.0012496018
0.62176263 -0.22259745 -0.016405873 11373972 -0.085779682 -0.034512125 0.99571621 0.0013912807
0.63212782 -0.22527154 -0.015528644 11373720 -0.10103319 -0.026838107 0.99452096 0.0014372342
0.64430714 -0.22354315 -0.014157526 11637144 -0.087596834 -0.027918896 0.99576467 0.0017182638
0.65524995 -0.22676487 -0.010622218 11637916 -0.10290638 -0.031135293 0.99420369 0.0016652334
0.66121697 -0.22797669 -0.013466209 11767449 -0.098652162 -0.033864331 0.99454564 0.0010213268
0.6757617 -0.22604541 -0.011714205 11570843 -0.070764579 -0.023926307 0.99720603 0.001237566
0.69490433 -0.2255204 -0.012970373 11900316 -0.083957657 -0.023327729 0.99619627 0.0014528369
0.70486683 -0.22003266 -0.010561943 12031133 -0.096542925 -0.03027847 0.99486816 0.0014454757
0.55936813 -0.21732937 -0.019650683 10979468 -0.089517243 -0.048190407 0.99481881 0.00066180748
0.56717455 -0.21029676 -0.019269243 10848654 -0.074888214 -0.034807995 0.99658424 0.0006040837
0.5813899 -0.21100387 -0.018286891 10979724 -0.089828193 -0.025349421 0.99563468 0.00080143753
0.59487653 -0.21285456 -0.018337645 11176080 -0.083426572 -0.020342011 0.9963063 0.001058833
0.60457963 -0.21012096 -0.018108934 11110797 -0.084545173 -0.024444779 0.99611974 0.0011202197
0.61091578 -0.21600334 -0.016104013 11242383 -0.090115987 -0.026361398 0.99558234 0.0015897898
0.62137717 -0.21193105 -0.015901975 11308949 -0.081997462 -0.023704529 0.99635065 0.0012703345
0.63511854 -0.21423738 -0.015624459 11439509 -0.089524858 -0.032175757 0.99546468 0.0015054797
0.64594501 -0.21619327 -0.012597963 11834519 -0.099890307 -0.021550486 0.99476504 0.001727447
0.65668684 -0.21163701 -0.015269101 11767708 -0.091427065 -0.034858819 0.99520147 0.00091589935
0.66162777 -0.21887496 -0.013484955 11505559 -0.10047663 -0.023443535 0.99466318 0.00046356206
0.67177248 -0.21932015 -0.01035507 12163483 -0.08257518 -0.038168084 0.99585372 0.0014784276
0.69233119 -0.21498494 -0.011765301 11966367 -0.089387722 -0.031706747 0.9954921 0.0014488278
0.54869419 -0.20964102 -0.019719198 10651018 -0.087527491 -0.031158388 0.99567473 0.00073445536
0.55719477 -0.20533983 -0.019887671 10782093 -0.079944372 -0.013435532 0.99670875 0.00073604961
0.57771963 -0.20286228 -0.018184558 11242642 -0.089544944 -0.024495808 0.99568152 0.00055554666
0.59516013 -0.20267221 -0.016485885 11177360 -0.081910186 -0.033665482 0.99607098 0.0010181225
0.60416794 -0.20582816 -0.016709931 11176594 -0.091280065 -0.02789994 0.99543434 0.0012700959
0.61364436 -0.20191137 -0.015601814 11242896 -0.087020896 -0.04094303 0.99536473 0.0013657749
0.62129354 -0.20018505 -0.017114282 11504789 -0.082787253 -0.03424732 0.99597865 0.0013805591
0.63203788 -0.20343415 -0.014362819 11505041 -0.096393637 -0.040344652 0.99452531 0.0016472903
0.64415669 -0.20611255 -0.014289652 11636118 -0.086525373 -0.028044643 0.99585485 0.0014300126
0.65915626 -0.20797804 -0.011303887 11966107 -0.089374155 -0.035679288 0.99535888 0.0013401898
0.66748166 -0.20795268 -0.01374957 11570836 -0.078454383 -0.019054102 0.99673563 0.00056021148
0.67751104 -0.20959726 -0.011846989 11768987 -0.071002007 -0.027648214 0.9970929 0.0010816525
0.69186735 -0.20487292 -0.011405393 11965596 -0.094022535 -0.052106913 0.99420553 0.0013231726
0.70413077 -0.20826435 -0.010069221 12031387 -0.094961494 -0.052773848 0.99408108 0.0012907629
0.54651219 -0.19787286 -0.019913569 10912910 -0.082934536 -0.028434064 0.9961493 0.00100127
0.55836099 -0.19096486 -0.019750074 10914189 -0.079733744 -0.050388988 0.99554181 0.0015321794
0.56643867 -0.19494301 -0.019316118 11045516 -0.074842468 -0.032421272 0.99666816 0.0011961211
0.58246601 -0.19127932 -0.017007425 11177107 -0.092289932 -0.042428222 0.99482781 0.0011005175
0.59415013 -0.19752622 -0.017964816 11176337 -0.084523678 -0.035333343 0.99579483 0.0011295597
0.60697794 -0.1920754 -0.016152106 11308433 -0.096386068 -0.049287938 0.99412292 0.0014574112
0.61591995 -0.19591412 -0.014460519 11572376 -0.0925446 -0.051887073 0.99435568 0.0017280381
0.63458699 -0.19440044 -0.013921107 11439254 -0.09044259 -0.039983194 0.99509871 0.0015035908
0.64655596 -0.1969372 -0.012061581 11834265 -0.097416453 -0.039420668 0.99446273 0.001706577
0.65675414 -0.19608536 -0.014037147 11571099 -0.085729003 -0.053360134 0.99488854 0.0010254291
0.66570151 -0.19098002 -0.012723148 11833501 -0.097688168 -0.057523556 0.99355328 0.00065175106
0.67772084 -0.19838513 -0.011739671 11701920 -0.091116995 -0.05434864 0.99435604 0.00070154166
0.55061239 -0.18598637 -0.019497827 10848397 -0.070270203 -0.075609423 0.99465841 0.0018400992
0.56934655 -0.183525 -0.019012943 10980499 -0.079711556 -0.06616056 0.99461997 0.0012464799
0.57757163 -0.18527645 -0.017856279 11176590 -0.081669971 -0.060216684 0.99483871 0.0013193693
0.59433472 -0.18679336 -0.018513784 11109519 -0.091970861 -0.043021448 0.99483186 0.001124686
0.60359317 -0.18521582 -0.016000498 11242642 -0.094871446 -0.053742286 0.99403781 0.0012434432
0.61441493 -0.18305835 -0.014885254 11439509 -0.078674428 -0.044992998 0.99588448 0.0015599229
0.62290096 -0.18999217 -0.017673731 11307919 -0.086061865 -0.034079257 0.9957068 0.0013234506
0.63344932 -0.18446535 -0.015064861 11570837 -0.096780136 -0.038638573 0.99455547 0.0017806835
0.64264143 -0.18635422 -0.012461789 11702936 -0.09525694 -0.047130853 0.99433637 0.0018235906
0.65240258 -0.18628503 -0.01302892 11636889 -0.089864381 -0.04824549 0.99478483 0.0015602055
0.66597694 -0.18269558 -0.012696862 11635870 -0.10506564 -0.062005728 0.99253035 0.001067595
0.6766879 -0.18355706 -0.010878377 11769247 -0.079941899 -0.05064743 0.99551201 0.001434062
0.69080406 -0.18893948 -0.010706306 11900062 -0.093733311 -0.061563719 0.9936921 0.00064707687
0.53578377 -0.17408912 -0.018979087 11240843 -0.09724655 -0.048580501 0.99407399 0.0018331981
0.54657876 -0.17394423 -0.01884605 10848394 -0.097920865 -0.060719296 0.99334019 0.0021731986
0.55249095 -0.17834887 -0.01829417 10979725 -0.06730587 -0.065889709 0.99555439 0.0022629185
0.56696737 -0.17807421 -0.017747894 11242644 -0.077090971 -0.070175625 0.99455136 0.0013306155
0.57952875 -0.17339137 -0.019462705 10913679 -0.085861601 -0.047849234 0.99515742 0.00070164958
0.58697975 -0.17903078 -0.01763586 11176592 -0.087197013 -0.063134432 0.99418849 0.0013519214
0.59733725 -0.17519671 -0.014417037 11570838 -0.086413592 -0.052437849 0.99487835 0.0009894981
0.60655087 -0.17296803 -0.015017264 11505301 -0.093472928 -0.046699803 0.99452603 0.00099868258
0.61758333 -0.17867982 -0.015095413 11307663 -0.076062649 -0.03865467 0.99635351 0.00096201949
0.62594646 -0.17417754 -0.013987921 11570838 -0.096235402 -0.055187456 0.99382752 0.0019490406
0.63483763 -0.17552076 -0.012525931 11966364 -0.09509179 -0.043547321 0.99451554 0.001870104
0.64335519 -0.17606111 -0.013230299 11834006 -0.10378782 -0.046005558 0.99353492 0.0018889877
0.6522153 -0.1780729 -0.012811899 11768219 -0.095308065 -0.052512251 0.99406177 0.0016344152
0.6630547 -0.17673324 -0.011383504 11439258 -0.10569984 -0.062299434 0.99244463 0.0013147552
0.6768024 -0.17852286 -0.011025757 12292257 -0.093341388 -0.056976747 0.99400258 0.00098737713
0.54530519 -0.16653581 -0.017936692 11045776 -0.112454 -0.025695875 0.99332464 0.002168176
0.55779999 -0.16894726 -0.01850988 10848394 -0.086587682 -0.056302741 0.99465197 0.0018303175
0.56574911 -0.16422385 -0.017133692 11176846 -0.07636705 -0.054573163 0.99558514 0.0012050812
0.57767683 -0.16275062 -0.016411647 11505559 -0.085410841 -0.040980291 0.99550271 0.001253708
0.58492845 -0.16687544 -0.017350728 11176334 -0.082236946 -0.049442977 0.99538553 0.00067209307
0.59747487 -0.16419768 -0.015887246 11373459 -0.084164239 -0.042650528 0.99553871 0.00078860973
0.6052295 -0.16074564 -0.016690433 11307665 -0.077821553 -0.040182754 0.99615723 0.00086273369
0.61677092 -0.16297428 -0.013850868 11440275 -0.083395146 -0.042951379 0.99559045 0.0014818091
0.62057465 -0.16866139 -0.016281188 11570323 -0.07546217 -0.05740308 0.99549508 0.0008387299
0.63292366 -0.1671766 -0.012066066 11834518 -0.095495768 -0.054225072 0.9939518 0.0020393122
0.64627123 -0.16287221 -0.012173231 11900312 -0.099225685 -0.055875219 0.99349493 0.0016398759
0.65016931 -0.16961719 -0.011803359 11703192 -0.087698735 -0.059790011 0.99435109 0.0016165775
0.66472775 -0.1686431 -0.011940211 11768725 -0.098018773 -0.064072333 0.9931199 0.0017167954
0.67614251 -0.16999459 -0.010611415 12096673 -0.087771632 -0.057775129 0.9944638 0.0014404978
0.53820246 -0.15581115 -0.019230798 10652038 -0.097302943 -0.015289864 0.99513739 0.0023539923
0.54698765 -0.15735152 -0.018268004 10783883 -0.12166752 -0.012632798 0.99249053 0.0017018829
0.5578264 -0.15518229 -0.018635415 10979215 -0.097359397 -0.040537637 0.99442339 0.0014105531
0.56721187 -0.15164918 -0.017587803 11045007 -0.082384907 -0.044047248 0.99562675 0.00089387642
0.57614988 -0.15254416 -0.015321836 11242642 -0.080844879 -0.024319271 0.99642998 0.0011840219
0.58456206 -0.15541185 -0.016895689 11242384 -0.078246705 -0.034007121 0.99635386 0.00098249805
0.59824336 -0.15079781 -0.015380226 11374485 -0.086875394 -0.035617713 0.99558228 0.0010415593
0.60877275 -0.15217626 -0.014433838 11571604 -0.085506439 -0.036046289 0.99568534 0.00096856477
0.61842197 -0.15406278 -0.010960951 11572118 -0.081070885 -0.037598908 0.99599898 0.0015483279
0.6247642 -0.15732944 -0.015093267 11440024 -0.10194015 -0.060194299 0.99296772 0.0013758852
0.63676941 -0.15701804 -0.012191705 11440787 -0.11013089 -0.067005418 0.99165595 0.0013474569
0.6488049 -0.15041371 -0.010903299 11965348 -0.080037571 -0.044192489 0.99581176 0.0021165954
0.6649394 -0.15756036 -0.011839956 12030879 -0.082359888 -0.042712245 0.99568701 0.00185906
0.53922659 -0.14895597 -0.019378528 10979721 -0.088741422 -0.031131482 0.99556816 0.0025227009
0.54913557 -0.14820729 -0.018809304 11111311 -0.11452302 -0.024378264 0.9931215 0.0020536394
0.55717599 -0.14545435 -0.018049307 11110800 -0.10435706 -0.030724987 0.99406523 0.0013151718
0.56611168 -0.14177653 -0.016768493 11111311 -0.087880172 -0.03174901 0.99562496 0.0012104445
0.57947046 -0.14064269 -0.016200021 11177363 -0.090692863 -0.034918517 0.99526656 0.0010749731
0.58772177 -0.14817026 -0.016145743 11177106 -0.074521869 -0.029980173 0.99676865 0.00094507739
0.59598041 -0.14032322 -0.014107458 11242897 -0.09471418 -0.032887358 0.99496114 0.0011403487
0.6083377 -0.14133704 -0.015953958 11307665 -0.077048749 -0.044110272 0.99605107 0.0009003735
0.61661607 -0.14462899 -0.013364039 11637655 -0.091961674 -0.043520194 0.99481112 0.0013069325
0.63394725 -0.14897962 -0.013244629 11636889 -0.12131722 -0.059907179 0.99080437 0.00098061236
0.64676368 -0.14747438 -0.010179862 11901340 -0.08243189 -0.043696929 0.99563831 0.0011248682
0.6646536 -0.14502706 -0.011508733 11703703 -0.085933305 -0.010879161 0.99624151 0.0026825774
0.52585322 -0.13530217 -0.019921437 10849170 -0.096228465 -0.035734326 0.9947176 0.0023079875
0.53785294 -0.13705045 -0.018197849 10782091 -0.10064383 -0.040838651 0.99408412 0.0030287604
0.54825485 -0.13484424 -0.018632703 11240847 -0.096200675 -0.041106641 0.9945128 0.0018836955
0.55721319 -0.1340154 -0.017330656 11044751 -0.089924082 -0.036286689 0.99528742 0.0017793206
0.56729722 -0.13216057 -0.017058618 11439252 -0.075193994 -0.040108301 0.99636203 0.0013019929
0.5844236 -0.13663447 -0.016563332 11373205 -0.069108047 -0.044854838 0.99660027 0.0010866775
0.59581387 -0.13017395 -0.013709493 11505042 -0.090688683 -0.046794966 0.99477929 0.0013446549
0.6081019 -0.13099667 -0.015680671 11504023 -0.092618376 -0.043290548 0.99476016 0.00083051861
0.61356711 -0.13186038 -0.013172202 11440535 -0.096198723 -0.044736885 0.99435627 0.0014019816
0.62661761 -0.13466428 -0.011888266 11637399 -0.10678329 -0.048041884 0.99312097 0.0011801245
0.63586408 -0.13845085 -0.011012673 11241872 -0.088658601 -0.044957086 0.99504697 0.0010977942
0.64994866 -0.13962401 -0.011206985 12161692 -0.079544254 -0.030090626 0.99637711 0.0017713348
0.6639027 -0.13246325 -0.010984063 11440280 -0.069035836 -0.048347306 0.99644202 0.0052714511
0.5251416 -0.12684441 -0.01999481 10849167 -0.1046738 -0.050889209 0.99320376 0.0023635374
0.53500336 -0.12335026 -0.019099776 10847886 -0.10398954 -0.04930551 0.99335551 0.0023459268
0.54872185 -0.12173431 -0.019322634 10978960 -0.092263907 -0.034220662 0.99514639 0.00075988466
0.55469662 -0.12593839 -0.018877424 11110800 -0.098669901 -0.037442368 0.99441558 0.0019096986
0.56290144 -0.12076391 -0.017307289 10913677 -0.061491475 -0.032083768 0.99759185 0.0015783838
0.57495725 -0.12571949 -0.016317137 11176337 -0.08334887 -0.037606355 0.99581057 0.0013082877
0.58614111 -0.12490074 -0.016259115 11176849 -0.077331774 -0.043735489 0.99604571 0.0013631531
0.59730262 -0.12029035 -0.012077376 11309970 -0.084667563 -0.038794752 0.99565375 0.0018609505
0.60740668 -0.12062997 -0.015195876 11636369 -0.099284947 -0.056274623 0.9934665 0.001199489
0.61339962 -0.1214662 -0.012787245 11506584 -0.08307384 -0.046544407 0.99545586 0.0012201101
0.6282649 -0.12590122 -0.013272464 11636118 -0.091270693 -0.03821956 0.99509239 0.0010957767
0.63747102 -0.12785119 -0.011532247 11767953 -0.076067388 -0.024273604 0.99680722 0.0010678327
0.65378153 -0.12761134 -0.011131912 11834010 -0.086236678 -0.048280388 0.99510413 0.0027688423
0.67657518 -0.12773496 -0.010061532 12165050 -0.089366823 -0.058306012 0.99429071 0.0049235192
0.68017489 -0.12229158 -0.011429489 12231105 -0.089937039 -0.086621232 0.99217343 0.0041560763
0.5158515 -0.11515602 -0.019857302 9204854 -0.081263877 -0.043833446 0.99572831 0.0012595463
0.52732104 -0.1172158 -0.019746467 10980748 -0.11070449 -0.052006062 0.99249178 0.0019847176
0.53846657 -0.11506552 -0.018388979 10913164 -0.091018237 -0.04268663 0.99493396 0.0019459736
0.54809463 -0.11589032 -0.017988406 10978960 -0.099565759 -0.036314771 0.99436814 0.0021136613
0.55805039 -0.11276516 -0.018660724 11110289 -0.083821118 -0.033027004 0.99593341 0.0014438706
0.56607509 -0.11751847 -0.016017459 11111569 -0.088128179 -0.032761551 0.99557024 0.0015663723
0.57557464 -0.11552089 -0.015862323 11177366 -0.10062791 -0.0544395 0.99343365 0.0013516429
0.5860641 -0.11533621 -0.012589648 11243416 -0.093546294 -0.048231862 0.99444598 0.0015375291
0.59604436 -0.11500428 -0.01328776 11374223 -0.087671489 -0.041489135 0.99528509 0.0014582813
0.60625207 -0.11024834 -0.014499784 11570068 -0.099250086 -0.053144749 0.99364233 0.0012154076
0.61323619 -0.11108863 -0.012392245 11571606 -0.081732959 -0.045653738 0.99560809 0.0013222129
0.62539321 -0.11117399 -0.011763662 11307922 -0.081143498 -0.061171986 0.99482346 0.00074295996
0.63835204 -0.11582018 -0.011714101 11767958 -0.084258199 -0.048387285 0.9952684 0.00086215063
0.64991421 -0.11779727 -0.010826439 11965853 -0.10316054 -0.051873516 0.99331117 0.0021837908
0.50675619 -0.10530563 -0.019725338 9598587 -0.075394846 -0.05385391 0.99569845 0.00096635631
0.51959568 -0.10621639 -0.019210145 9994118 -0.098567717 -0.05932783 0.99336028 0.0016194532
0.53425211 -0.1065367 -0.016952708 10783116 -0.10802624 -0.042536922 0.99323761 0.0020974996
0.54569465 -0.10436413 -0.018460875 11043983 -0.088344738 -0.039635997 0.99530107 0.0017739214
0.55789995 -0.10597552 -0.017152555 11110290 -0.077839062 -0.045170359 0.99594218 0.001777098
0.56706512 -0.1073187 -0.014644787 10980756 -0.10394353 -0.051367361 0.99325585 0.0022475456
0.57383096 -0.1037896 -0.01696068 11176079 -0.08569961 -0.039441194 0.99554008 0.0013845901
0.58262944 -0.10609099 -0.014097303 11111313 -0.093388163 -0.040254395 0.99481571 0.001780848
0.59634185 -0.10491506 -0.013093688 11308180 -0.085197687 -0.039418913 0.99558401 0.0018604654
0.61237228 -0.10068955 -0.011706375 11506070 -0.081787318 -0.042242285 0.99575418 0.0016872752
0.62412274 -0.10131627 -0.011085548 11308691 -0.082728013 -0.028020877 0.99617815 0.0013106505
0.63685834 -0.10098375 -0.010822237 11702423 -0.083104521 -0.05428154 0.9950614 0.0010734256
0.65065473 -0.10963838 -0.011003375 11768475 -0.10834873 -0.052574266 0.9927218 0.0014396918
0.50900447 -0.094372526 -0.019971266 8678768 -0.079196401 -0.03907701 0.99609286 0.0009274144
0.51894671 -0.096062779 -0.018805638 9402999 -0.1048663 -0.021392345 0.99425626 0.001183982
0.53461194 -0.093993366 -0.018277712 10913422 -0.10200807 -0.038726363 0.99402952 0.0013990987
0.54723901 -0.094707042 -0.016810246 10979217 -0.083375335 -0.038652245 0.99576831 0.0016406755
0.55761099 -0.093496911 -0.018151522 11175570 -0.082396209 -0.034820557 0.99599117 0.001017553
0.56456012 -0.097451694 -0.01566948 10914704 -0.094673656 -0.025794646 0.99517411 0.0022938685
0.57295609 -0.093640693 -0.014506303 11242129 -0.088143654 -0.035056312 0.99549067 0.0021136662
0.58604872 -0.098017968 -0.013829477 11242643 -0.085716449 -0.02981073 0.99587345 0.0015470115
0.59708583 -0.094828285 -0.013138331 11176851 -0.097242512 -0.039772585 0.99446571 0.0021147546
0.60555798 -0.099931136 -0.014016271 11438482 -0.096940465 -0.050030123 0.99403197 0.0013114142
0.62421805 -0.0943093 -0.010755911 11637399 -0.085901469 -0.055431716 0.99476039 0.0034976075
0.63568848 -0.090217173 -0.010137826 11505305 -0.079546481 -0.047588475 0.99569464 0.0010809214
0.49418396 -0.085488945 -0.018758431 10388872 -0.096326053 -0.029849647 0.99490219 0.001940783
0.51046348 -0.084371537 -0.019716635 8807794 -0.066221319 -0.023618685 0.99752539 0.00080834987
0.52107024 -0.085075542 -0.017699316 10784142 -0.10069287 -0.017117178 0.99477029 0.00085060147
0.53550506 -0.084705748 -0.018477328 10716301 -0.10318232 -0.029536096 0.99422377 0.0012495103
0.54534572 -0.086160846 -0.016354134 10979984 -0.07740207 -0.026178621 0.99665618 0.0017929501
0.55799419 -0.084500387 -0.016485281 11241614 -0.080216549 -0.025762603 0.99644452 0.0018739139
0.56703973 -0.084722564 -0.014285989 11045259 -0.10744402 -0.028493728 0.99380273 0.0017586442
0.57926416 -0.08513014 -0.013684422 11242901 -0.089074098 -0.01469728 0.99591655 0.0035075063
0.58599412 -0.08928027 -0.013575904 11242390 -0.093536705 -0.027836978 0.99522662 0.0015643297
0.59238297 -0.089378282 -0.013313651 11242127 -0.10744768 -0.052357383 0.99283117 0.00092741917
0.60738683 -0.088905975 -0.011971764 11373972 -0.08284121 -0.039211437 0.99579108 0.0017851689
0.61325634 -0.089786604 -0.011710078 11439765 -0.094836012 -0.04294676 0.99456614 0.00094589975
0.62442005 -0.088245094 -0.010738976 11374739 -0.081292748 -0.048988756 0.9954856 0.0021602488
0.49689627 -0.074935824 -0.019585416 10453900 -0.078118622 -0.030881613 0.99646568 0.0017321499
0.51070976 -0.075606748 -0.019404456 9202033 -0.061338786 -0.023783416 0.99783361 0.0011559045
0.52643943 -0.074113354 -0.018650748 10914188 -0.10836452 -0.022466524 0.99385732 0.00065855728
0.53490502 -0.074319482 -0.017855637 10715784 -0.094864771 -0.016305437 0.99535662 0.0011021313
0.54578286 -0.074997939 -0.016165057 11044495 -0.076277681 -0.0095506804 0.99704087 0.0014672764
0.56449002 -0.077743247 -0.015189688 11176337 -0.097276084 -0.025874736 0.99492103 0.0025774147
0.57619971 -0.076458067 -0.012014076 11242641 -0.076066419 -0.024193136 0.99680918 0.0034489657
0.58475167 -0.079200462 -0.015056551 11175824 -0.083970167 -0.035846546 0.99582332 0.0006364818
0.59489751 -0.079626627 -0.012781769 11373973 -0.092973202 -0.023203168 0.99539822 0.0022849725
0.60162216 -0.074661374 -0.011805676 11176851 -0.099289156 -0.021397494 0.99482852 0.0017561433
0.61577833 -0.079357229 -0.012677789 11636632 -0.083248116 -0.028167931 0.9961307 0.00093659683
0.62420803 -0.079422072 -0.010720968 11505300 -0.088198453 -0.026654696 0.99574625 0.0010146911
0.63775426 -0.079472736 -0.010853469 11505046 -0.099586643 -0.034264218 0.99443877 0.00073962694
0.4971258 -0.066387564 -0.019271597 10585225 -0.084685162 -0.028367847 0.99600387 0.0022931022
0.51412082 -0.062693186 -0.01939673 9596790 -0.074173242 -0.04088559 0.99640691 0.0010633892
0.52613652 -0.06388443 -0.018185146 10848655 -0.095216654 -0.020405719 0.99524742 0.0011640113
0.53505659 -0.063940115 -0.017628051 10518924 -0.078739643 -0.018186349 0.99672931 0.0013498876
0.54307371 -0.063981444 -0.01651863 10716304 -0.079290472 -0.011606546 0.99678403 0.0015086904
0.5561021 -0.068749398 -0.016181776 10913936 -0.08872474 -0.011015345 0.99599528 0.0021070221
0.56390691 -0.069385037 -0.01560533 11110279 -0.089062221 -0.026989229 0.99566036 0.0011737049
0.57388842 -0.067332819 -0.012993056 11045778 -0.088294245 -0.017682722 0.99593747 0.0028976982
0.58406669 -0.069191769 -0.014573842 11176339 -0.089535683 -0.016175373 0.99585223 0.00089180382
0.59177536 -0.066992074 -0.012811284 11177109 -0.090660714 -0.017559195 0.99572706 0.0024691604
0.60301787 -0.069033101 -0.012356222 11503764 -0.10101483 -0.018443368 0.99471396 0.0010681787
0.61416042 -0.068918593 -0.011780262 11701909 -0.090790935 -0.021675091 0.99563408 0.00085142261
0.62304527 -0.068868838 -0.010034919 11374228 -0.078047134 -0.0071093324 0.99692434 0.0012056251
0.49613479 -0.055723757 -0.018241495 10584713 -0.077495381 -0.028417094 0.99658763 0.0039813775
0.509691 -0.053755328 -0.017838731 10650760 -0.067576043 -0.021963727 0.99747241 0.0023198661
0.52372789 -0.056149613 -0.017569646 10716812 -0.094116569 -0.030618638 0.99509025 0.00049235852
0.53394061 -0.052768156 -0.01811474 10584972 -0.07448677 -0.0096641546 0.99717522 0.0012328384
0.5404644 -0.05872402 -0.015741333 10454925 -0.072584599 -0.025131449 0.99704564 0.00091378822
0.55566925 -0.05705449 -0.017040616 10781834 -0.093151331 -0.017659204 0.99549532 0.0018147267
0.56596535 -0.059308708 -0.014377594 11044753 -0.10176708 -0.020206168 0.99460298 0.0021947508
0.57505423 -0.052124333 -0.01380073 11045007 -0.082402341 -0.0026800383 0.9965955 0.0029768243
0.58434188 -0.058166228 -0.013258971 11176592 -0.071159139 -0.0036380342 0.99745834 0.0017066832
0.59411919 -0.055107519 -0.013587803 11177104 -0.094136164 -0.0084416708 0.99552357 0.0011094463
0.60155249 -0.059361637 -0.011400498 11045776 -0.098980345 -0.010059085 0.99503857 0.0019017789
0.61362994 -0.058051314 -0.010996588 11439763 -0.090704784 0.0009648134 0.99587733 0.0019138274
0.62570798 -0.054209992 -0.010970742 11372945 -0.072688296 -0.0051028407 0.99734163 0.00092054793
0.47789964 -0.048568878 -0.019166365 10585228 -0.071731992 -0.021610435 0.99718982 0.0027807928
0.49708328 -0.044033177 -0.018129587 10649996 -0.070089452 -0.018622717 0.99736685 0.0063079484
0.50432932 -0.043257888 -0.019913435 10583939 -0.078274429 -0.021028224 0.99671006 0.0010702213
0.51202798 -0.045032181 -0.01854296 10717070 -0.057295725 -0.024354737 0.99806017 0.0032553654
0.52453542 -0.043197975 -0.017523505 10386562 -0.078004114 -0.016532615 0.99681598 0.0010257161
0.53176665 -0.045030557 -0.015981987 10585997 -0.083119087 -0.026144007 0.99619663 0.00055748998
0.54560691 -0.045031738 -0.017213572 10781835 -0.09011694 -0.023004185 0.99566549 0.0018533287
0.55549765 -0.040585704 -0.016294956 10978698 -0.10998391 -0.024746491 0.99362528 0.0019616489
0.56527722 -0.045475982 -0.014018575 10847884 -0.083065338 -0.022818699 0.99628282 0.0023935833
0.58329463 -0.044335835 -0.013489194 10979214 -0.074748389 -0.012886208 0.99711919 0.0021034894
0.59565693 -0.049893882 -0.011067405 11111313 -0.10799789 0.00077883527 0.99415082 0.0022195622
0.60195541 -0.043604434 -0.011805777 10848909 -0.093121417 -0.02102668 0.99543267 0.0014184313
0.61359489 -0.044122264 -0.011124954 11110801 -0.082585149 -0.01509002 0.9964698 0.0010506131
0.62664747 -0.044862881 -0.011232615 11241615 -0.066930413 -0.011396816 0.99769258 0.00099030801
0.49494296 -0.030376736 -0.016374871 10322828 -0.082104608 -0.029914273 0.99617469 0.0072576706
0.50527787 -0.03322373 -0.018646456 10189439 -0.069653906 -0.015195432 0.99745554 0.0032426126
0.51630545 -0.035614736 -0.01882387 10256009 -0.066138722 -0.021639179 0.99757576 0.0017708731
0.5238384 -0.03457205 -0.017686613 10320261 -0.074410722 -0.021553818 0.99699473 0.0013056993
0.53666139 -0.033958606 -0.01749552 10387595 -0.090914056 -0.01728807 0.9957087 0.0012091136
0.545542 -0.033233672 -0.015880398 10781840 -0.0845327 -0.021465454 0.99618948 0.0010286099
0.55452287 -0.036177997 -0.014954232 10847376 -0.09078294 -0.02447469 0.99556988 0.0017877978
0.56352907 -0.032884762 -0.014866173 10847622 -0.091833442 -0.022529831 0.99551946 0.0008198389
0.57461023 -0.036256149 -0.014760561 10913419 -0.068834923 -0.030112371 0.99717355 0.0017468588
0.58541304 -0.033424862 -0.01293131 10914186 -0.069512762 -0.03347693 0.99701917 0.0015139733
0.59442836 -0.038553216 -0.01347208 10913164 -0.09485019 -0.031068327 0.99500668 0.001368777
0.60267091 -0.033551686 -0.011976384 10651784 -0.09341453 -0.024614491 0.995323 0.0016651652
0.61378646 -0.032350142 -0.011021078 10913422 -0.082529761 -0.041439939 0.9957267 0.0007349092
0.47666952 -0.029950712 -0.018450201 10584714 -0.095491536 -0.026443532 0.99507898 0.002973689
0.48082852 -0.021660939 -0.019592509 10322056 -0.1034749 -0.046759825 0.99353236 0.0049516745
0.49433246 -0.024028795 -0.018035084 10256258 -0.094258092 -0.046066813 0.99448138 0.0062613399
0.50613689 -0.022250038 -0.018710412 9663609 -0.05637569 -0.013160002 0.9983229 0.0036111234
0.51702088 -0.024149325 -0.018655695 10190215 -0.06135083 -0.0074865106 0.99808818 0.0023320008
0.52707064 -0.025325645 -0.017431416 10584457 -0.079370514 -0.016514886 0.99670833 0.0015596356
0.53531623 -0.024879865 -0.016532578 10649995 -0.08834859 -0.01296821 0.99600518 0.0015418548
0.54521596 -0.024332589 -0.016283639 10716303 -0.097018816 -0.020375013 0.99507397 0.0013142535
0.55581021 -0.024385702 -0.014956795 10781576 -0.089308478 -0.013640534 0.99591058 0.0013136298
0.56546402 -0.028398428 -0.012968317 10651530 -0.07288406 -0.026247576 0.99699503 0.0023361277
0.57052565 -0.025138155 -0.013487168 10716297 -0.079914518 -0.01882364 0.99662399 0.0013887277
0.58352423 -0.023264205 -0.01294529 10782091 -0.088201389 -0.03093469 0.99562216 0.001491147
0.59225351 -0.023478217 -0.012215629 10847365 -0.093230747 -0.021784658 0.99540615 0.00097441289
0.60327005 -0.023785952 -0.011053003 10650761 -0.096548341 -0.025261275 0.99500769 0.0016436013
0.61354822 -0.021903168 -0.010744989 10979465 -0.081767328 -0.02247759 0.99639791 0.00080727827
0.62536347 -0.028994786 -0.010406137 10912137 -0.067185432 -0.036179617 0.99708432 0.00060920307
0.46087795 -0.011493545 -0.01989533 10125186 -0.086388431 -0.015946345 0.99613392 0.0015456573
0.48546737 -0.011930835 -0.019707367 10191236 -0.087805063 -0.0142146 0.99603623 0.0053995764
0.49366441 -0.013518203 -0.018322805 10452357 -0.071329266 -0.0033465559 0.99744719 0.0056798272
0.5053792 -0.015736775 -0.017739579 8020840 -0.062445104 -0.0073217433 0.9980216 0.0057944404
0.51668102 -0.013294858 -0.017637782 9993856 -0.068883173 -0.015812714 0.99749941 0.0024821321
0.52767593 -0.016290681 -0.017396785 10649994 -0.082445122 -0.016241562 0.9964633 0.0015048068
0.5342899 -0.014278188 -0.017345643 10583945 -0.080588251 -0.013632627 0.99665421 0.0017320504
0.54647094 -0.015322977 -0.015745811 10715787 -0.095778093 -0.0059685381 0.99538481 0.0012106958
0.55698133 -0.016972566 -0.013776109 10453638 -0.089044072 -0.020895619 0.99580848 0.0011772562
0.56803197 -0.014981134 -0.014566854 10912651 -0.095713042 0.010612734 0.99535239 0.00056126708
0.57524347 -0.01258437 -0.011364833 10651020 -0.076136701 -0.03169382 0.99659359 0.0018054233
0.59715056 -0.011971588 -0.011663787 10650251 -0.10284399 -0.016132679 0.99456668 0.0016085128
0.60218632 -0.012442492 -0.011071563 10716041 -0.094368875 0.0078803562 0.99550611 0.00094873499
0.61376888 -0.011406465 -0.010674804 10978701 -0.084006429 0.0062628929 0.99644554 0.0009743963
0.46580237 -0.001222074 -0.019828394 10190725 -0.10075462 -0.024303786 0.99461442 0.0018214992
0.48241031 -0.0040077525 -0.017715856 10126213 -0.057690635 -0.0049032588 0.99832249 0.0034926455
0.49258083 -0.0031963834 -0.018378004 10125440 -0.064331681 0.023000646 0.99766344 0.0057863896
0.5056448 -0.0024455676 -0.018668553 9006451 -0.070459351 0.0081418268 0.99748141 0.0041371658
0.51663321 -0.0037414809 -0.018727697 10388106 -0.077611446 -0.00083041092 0.99698335 0.0020015461
0.52445823 -0.0026204414 -0.017029889 10254980 -0.085710429 -0.020325687 0.99611276 0.0019839432
0.5351482 -0.0050244969 -0.017479921 10518921 -0.079414129 -0.0094896359 0.99679655 0.0016942309
0.5448274 -0.0047801831 -0.014773365 10716046 -0.08724454 -0.010195854 0.99613476 0.0014367595
0.55701053 -0.0064660064 -0.015182759 10847628 -0.090869464 -0.00089392741 0.99586236 0.0010709504
0.56406271 -0.000628829 -0.014160283 10782349 -0.078016765 -0.00023351902 0.99695206 0.000837147
0.57410079 -0.0090054413 -0.013299361 10717325 -0.081792146 -0.032710105 0.99611247 0.0016337674
0.58569789 -0.0050037913 -0.012179948 10847887 -0.098183908 0.0047655711 0.99515682 0.0012995281
0.59242046 -0.0055324589 -0.011317126 10847371 -0.097219571 0.00015944272 0.99526298 0.0014613809
0.60286695 -0.0020481981 -0.011218607 11044237 -0.10152764 0.028217368 0.99443251 0.00073333603
0.61353046 -0.00095187873 -0.010398507 11241104 -0.090025842 0.01179686 0.99586958 0.00086602441
0.46805722 0.0098706167 -0.019363806 10256265 -0.076193914 0.0038824826 0.99708551 0.0023307838
0.48466432 0.0064694956 -0.01907666 10190469 -0.055620059 -0.0031866021 0.998447 0.0044396548
0.49406952 0.0094420239 -0.018492743 10321288 -0.054086715 0.0054501798 0.99852139 0.00583085
0.50590026 0.0049684746 -0.01768402 9070707 -0.067966379 0.007406692 0.99766016 0.0035394393
0.51633763 0.0062115416 -0.018267669 10650506 -0.078510091 -0.016099753 0.99678326 0.002496927
0.52396154 0.0055333618 -0.016504921 10517892 -0.089114256 -0.015843175 0.99589539 0.0026607593
0.53717792 0.0062099914 -0.016421415 10650253 -0.088828035 -0.014840376 0.99593639 0.0017845045
0.54638451 0.0060156868 -0.01589597 10650757 -0.085124329 -0.022764353 0.99611026 0.0015925778
0.55597627 0.0050035035 -0.014548369 10781578 -0.071916416 -0.018691655 0.99723554 0.0012910789
0.5662086 0.0090449639 -0.0155617 11044495 -0.075687505 -0.022011353 0.99688864 0.0012371392
0.57380241 0.00027274061 -0.013435774 10913421 -0.079108872 0.0011638782 0.99686533 0.0007821676
0.58391142 0.0047716592 -0.012503184 10913422 -0.085105374 0.010847814 0.99631292 0.0010270865
0.59478545 0.0071294708 -0.011907674 10912651 -0.097281329 0.0034179029 0.99525106 0.0019739633
0.605762 0.0056548333 -0.011276551 10781836 -0.10244169 -0.0086331209 0.99470156 0.0030542267
0.61329198 0.0095065162 -0.01012212 11111055 -0.088012129 0.021086624 0.99589616 0.0006352035
0.47690606 0.017856792 -0.019258752 10124934 -0.070331171 -0.021628899 0.99728918 0.0015649853
0.49381292 0.017699212 -0.017942265 10190980 -0.052874148 -0.020347249 0.99839389 0.0050335033
0.50765043 0.015032415 -0.018118411 9465718 -0.091525279 -0.018604422 0.99562895 0.0057225204
