# .PCD v0.7 - Point Cloud Data file format
VERSION 0.7
FIELDS x y z rgb normal_x normal_y normal_z curvature
SIZE 4 4 4 4 4 4 4 4
TYPE F F F U F F F F
COUNT 1 1 1 1 1 1 1 1
WIDTH 520
HEIGHT 1
VIEWPOINT 0 0 0 1 0 0 0
POINTS 520
DATA ascii
0.88051814 0.32547417 0.039691672 10652811 -0.11482444 -0.05783578 0.99170077 0.002000605
0.7931366 0.3366183 0.031393424 10256765 -0.10498036 0.052374072 0.99309421 0.0042231209
0.81292295 0.33498776 0.033389352 10257278 -0.094841197 0.0059232237 0.99547482 0.0038911635
0.83781195 0.33501181 0.034645043 10322816 -0.10190356 -0.037796687 0.99407601 0.0031776188
0.76972228 0.3416861 0.030500144 10059383 -0.09404362 0.043016233 0.99463838 0.0039206813
0.80854905 0.3419174 0.034261048 10257530 -0.13484645 0.021221392 0.99063921 0.0052485033
0.83844924 0.34906781 0.0344145 10125693 -0.12970877 -0.064496025 0.98945236 0.0048277108
0.85376924 0.34629774 0.037924662 10322817 -0.14954531 -0.068791494 0.98635894 0.0041859834
0.79443842 0.35892355 0.030976683 10256760 -0.13859203 0.03280665 0.98980606 0.0041386546
0.80928755 0.35109663 0.034045398 10125435 -0.13360286 0.037427746 0.99032795 0.005065626
0.83306587 0.35577381 0.03545291 10059897 -0.11879722 -0.037835319 0.99219739 0.0054670423
0.8466081 0.35553306 0.039241731 10191482 -0.14392634 -0.037502397 0.98887759 0.0067343223
0.81129754 0.36382043 0.033539601 10059380 -0.13513401 0.011325363 0.99076265 0.0047850343
0.82562149 0.36140355 0.036915243 10190456 -0.15064119 -0.023901435 0.98829949 0.0051901517
0.85045731 0.36653578 0.038408011 10190969 -0.1247053 0.0009406489 0.9921934 0.0064325519
0.8809278 0.36743978 0.039258361 10125690 -0.087981269 -0.0086971717 0.99608421 0.0069669555
0.83150584 0.37319368 0.035641648 9994098 -0.13651392 0.014780416 0.99052793 0.0060686395
0.85610569 0.37533879 0.037242427 10124923 -0.14199153 0.026667152 0.98950863 0.0058024758
0.86073303 0.38373271 0.036278218 10190718 -0.13443124 0.033769365 0.99034739 0.0044933874
1.0700146 -0.71191078 0.048788607 13221321 -0.087547451 0.01410629 0.99606049 0.0018248037
1.032729 -0.70700812 0.045941785 13155269 -0.13814026 0.030685719 0.98993719 0.0021051976
1.0400112 -0.70275927 0.044711664 13154499 -0.13812524 0.030723544 0.98993814 0.0021057655
1.0707171 -0.70317948 0.048583493 12892097 -0.092468731 0.031458966 0.99521852 0.0022576954
1.0060513 -0.68186837 0.041658387 12759740 -0.10707293 0.027047204 0.99388325 0.0015133508
1.032541 -0.68469703 0.045740589 12956349 -0.13317154 0.029202987 0.99066269 0.0021239142
1.0604162 -0.68320012 0.049960971 13155269 -0.11720113 0.035110518 0.99248737 0.0018633143
1.0029424 -0.67125982 0.04208532 13088193 -0.081818044 0.021776658 0.99640936 0.0013082562
1.0386245 -0.67070246 0.04460448 12232883 -0.12467057 0.017940421 0.99203598 0.0019879059
1.0690359 -0.6747371 0.048530936 13286084 -0.11065228 0.026962003 0.99349344 0.0018932464
1.0434318 -0.66024166 0.043712839 11970227 -0.13018526 0.013829295 0.99139327 0.0017715737
1.0621541 -0.66159964 0.049453527 13221059 -0.12326507 0.010623523 0.99231696 0.0014620774
1.010872 -0.65888768 0.040611386 12891067 -0.11117002 0.010168509 0.99374938 0.0024253752
1.0590558 -0.65077168 0.049814746 13352129 -0.12607642 0.028260635 0.99161792 0.0014278195
1.002089 -0.64492768 0.041973859 12957373 -0.083347104 -0.0075839623 0.99649173 0.0019478148
1.0403287 -0.64951956 0.044106841 11707823 -0.1287238 -0.00035976805 0.99168044 0.002278947
1.0711359 -0.64863425 0.047917724 13483713 -0.10384084 0.01882639 0.99441576 0.0013299382
1.0055836 -0.63843012 0.04131408 13088959 -0.083441131 -0.0075482074 0.99648416 0.0019371511
1.038168 -0.63940513 0.044353649 11575466 -0.13346085 -0.01377527 0.99095833 0.0020339482
1.0680376 -0.63780624 0.048278958 13549506 -0.10694184 0.01253486 0.99418628 0.0010401696
1.0098872 -0.62803411 0.040478215 13088698 -0.099120609 -0.01044872 0.99502057 0.0021688412
1.0350554 -0.62879694 0.044750318 12233139 -0.11603286 -0.0064333719 0.99322456 0.0017928861
1.0652822 -0.62271881 0.04854013 13549249 -0.095126078 0.014085509 0.99536562 0.00099209417
1.0252972 -0.61452615 0.046191275 12232367 -0.097544603 -0.022929331 0.99496698 0.0012453631
1.073936 -0.61383057 0.047100127 13615040 -0.095867351 -0.0014531474 0.9953931 0.0014837977
1.008225 -0.60560048 0.040542856 12956860 -0.11586696 -0.012943276 0.99318039 0.001687855
1.0329506 -0.60566485 0.044852793 12758965 -0.096134096 -0.017362067 0.99521697 0.0013608888
1.0670201 -0.60111839 0.048032701 13352895 -0.097996809 -0.025288112 0.99486542 0.0019121122
0.99655575 -0.59057593 0.042387441 13088698 -0.10514607 -0.0023482274 0.99445409 0.0025077369
1.0339631 -0.59308046 0.044557154 12890549 -0.097972296 -0.0074886247 0.995161 0.0017043735
1.0715256 -0.59445351 0.047260508 13615553 -0.10943592 -0.03644821 0.99332541 0.0016486445
1.034638 -0.58469087 0.044360071 12956344 -0.097611718 -0.012638541 0.99514431 0.0017408787
1.0684103 -0.58383805 0.047626734 13548477 -0.11649123 -0.043824043 0.99222445 0.0016390849
0.99753422 -0.57841289 0.042101711 13154492 -0.10274577 0.0080017326 0.99467546 0.0023159503
1.0286506 -0.57284379 0.04521206 12628147 -0.11570302 0.0039110202 0.99327618 0.0023884382
1.0691054 -0.57519782 0.047423765 13811649 -0.11306006 -0.040505622 0.99276221 0.0018543757
1.0013635 -0.56775457 0.041344196 13351870 -0.11801706 0.010052816 0.99296075 0.0024042127
1.0264643 -0.5630483 0.045466363 12036267 -0.14225674 0.021454189 0.98959726 0.0022205072
1.0593016 -0.56137627 0.04879196 13615042 -0.13011463 -0.018484389 0.99132669 0.0020153685
1.0338041 -0.55808568 0.044219479 12299439 -0.13583793 0.011984881 0.99065858 0.0023913756
1.0561696 -0.55096579 0.049163014 13680065 -0.12825999 0.010021371 0.99168998 0.0018953528
1.0278021 -0.54642087 0.045075744 12036269 -0.14708795 0.01595786 0.98899472 0.0019995524
1.0568557 -0.54243952 0.048962712 13745858 -0.13115162 0.011484523 0.99129581 0.00146682
1.0246543 -0.53625304 0.045482755 12299443 -0.14572522 0.022574322 0.98906755 0.0018890011
1.0320042 -0.53116131 0.04423286 12364721 -0.14938715 0.013357134 0.98868859 0.0018514438
1.0613669 -0.53570628 0.048188925 13549247 -0.13878188 0.020962089 0.9901011 0.00096001069
1.0326749 -0.52282482 0.044037014 13088696 -0.14972083 0.0013578833 0.98872739 0.0019314337
1.0658828 -0.52891231 0.047413737 13549246 -0.1273288 0.021840563 0.99162012 0.0012287641
1.002427 -0.5175975 0.040673032 13351867 -0.085674278 -0.032575034 0.9957906 0.0020914203
1.0304776 -0.51316601 0.044294521 13088696 -0.12921943 -0.013333344 0.99152637 0.0021163146
1.0627437 -0.51859301 0.047786891 13615039 -0.14184088 0.007732396 0.98985928 0.00091964955
0.99353403 -0.50500405 0.042067587 13351868 -0.070272632 -0.025382752 0.99720484 0.0019274349
1.0310035 -0.50046748 0.044076934 13351358 -0.096396647 -0.029136665 0.99491644 0.0019980657
1.0595995 -0.50833434 0.048161507 13681346 -0.14141482 0.017265398 0.98979986 0.0014476442
0.94716966 -0.49171045 0.042046487 13153723 -0.13844384 0.0014816645 0.9903692 0.0060997852
0.98844951 -0.49432591 0.042831004 13417663 -0.081835352 -0.023285944 0.99637383 0.0040649408
1.0602854 -0.49980804 0.047961205 13812678 -0.14142488 0.0079350965 0.98991722 0.0018872009
0.95350933 -0.48672596 0.040869713 13285309 -0.14519003 -0.0050024688 0.98939121 0.0056020184
0.98909205 -0.4863387 0.042643368 13416895 -0.074149519 0.00069315272 0.99724692 0.0034011381
1.0353577 -0.48947892 0.043253645 13417663 -0.097531497 0.0052986159 0.99521834 0.0011061003
1.0550778 -0.48436308 0.048598729 13813193 -0.145189 0.0026922293 0.98940027 0.0031863665
0.98973471 -0.47835144 0.042455733 13483456 -0.093872368 0.023846183 0.99529862 0.0033752385
0.99037725 -0.47036421 0.042268097 13483456 -0.10141197 0.042113215 0.99395275 0.0030450381
1.0293193 -0.47826961 0.04412061 13615040 -0.073244549 0.027400609 0.99693757 0.0013263762
1.0700278 -0.47739002 0.04620336 13681862 -0.16335976 0.017571542 0.98641008 0.0042675426
0.99963826 -0.46607161 0.040645868 13483454 -0.088413186 0.023079708 0.99581647 0.0023401168
1.0299857 -0.46998623 0.043926015 13878211 -0.069313206 0.048557516 0.99641252 0.001624277
1.0668741 -0.46725294 0.046580806 13746885 -0.14918469 0.028962903 0.98838508 0.0022479214
0.99166244 -0.45438975 0.041892812 13417661 -0.093371414 0.025148699 0.9953137 0.0026350971
1.0252254 -0.45521271 0.044547789 13746368 -0.079691552 0.034417469 0.99622524 0.002277524
1.0626148 -0.45235491 0.047077283 13746888 -0.12998995 0.037338428 0.99081206 0.0033017492
0.9923051 -0.44640252 0.041705176 13549247 -0.086486712 0.019671816 0.99605876 0.0022634338
1.0015825 -0.44190487 0.040078133 13615040 -0.083247244 0.00073143007 0.99652869 0.0025604593
1.0319849 -0.44513622 0.043342233 13746625 -0.083829239 -0.011731283 0.99641109 0.0025076836
1.0364974 -0.43834266 0.042536765 13680318 -0.091112748 -0.018668626 0.99566561 0.0026255713
1.0439011 -0.43258286 0.04127115 13680063 -0.11101191 -0.01528715 0.99370152 0.0026126418
1.0583463 -0.43757081 0.047576427 13812680 -0.12688074 0.0020184808 0.99191594 0.0037026322
0.98686993 -0.42776707 0.042450696 13615040 -0.1272577 -0.0054273419 0.99185485 0.0029322091
0.99423283 -0.42244083 0.04114227 13549247 -0.10987359 -0.0016064802 0.99394429 0.0024276329
1.0378351 -0.42171523 0.042146146 13877444 -0.097563304 -0.024848156 0.99491912 0.0025511489
1.0559962 -0.42361107 0.047787137 13812680 -0.11403684 -0.030705215 0.99300194 0.0023847187
0.99103051 -0.41299376 0.041596502 13615042 -0.11197004 -0.0093399538 0.99366766 0.0024440978
0.98589939 -0.40289274 0.042373464 13680581 -0.12147848 -0.025553079 0.99226511 0.0018600147
1.0182736 -0.40605858 0.045169249 13680063 -0.070972793 -0.018559216 0.99730557 0.003191784
1.0256776 -0.40029889 0.043903619 13679805 -0.082983084 -0.027126214 0.99618173 0.0032799635
1.0520453 -0.40487891 0.048193537 13746887 -0.12792473 -0.038077343 0.99105269 0.0036711157
0.99231082 -0.39708003 0.041222662 13484485 -0.11540323 -0.0049157613 0.99330658 0.0012914031
1.0588565 -0.3942247 0.047019839 13812678 -0.13300341 -0.041819781 0.99023294 0.0033044876
0.99295098 -0.38912317 0.041035742 13681345 -0.11947997 -0.015879214 0.99270964 0.0019140574
1.0195857 -0.38975009 0.044786125 13679806 -0.090032361 -0.0097018862 0.99589163 0.0023081352
1.0556697 -0.38449761 0.047406942 13812678 -0.1297276 -0.02198028 0.99130607 0.0027157303
0.98957258 -0.375705 0.041481212 13681093 -0.1491344 -0.030535854 0.98834532 0.0018047043
1.0225013 -0.37815729 0.044190854 13812163 -0.090877697 -0.010732174 0.99580425 0.0025722042
1.0379827 -0.37058619 0.041590899 13944005 -0.10002694 -0.0023370832 0.99498206 0.0031340867
1.049576 -0.37389642 0.048235208 13549506 -0.13539404 -0.004780883 0.99078035 0.0019363737
0.9890818 -0.36333618 0.041444197 13877444 -0.10936358 -0.020770425 0.99378479 0.0020794873
1.0434741 -0.36340162 0.049065977 13746887 -0.11455724 -0.0065332428 0.99339521 0.0033199652
0.98682165 -0.35448939 0.041743502 13943239 -0.095362 -0.02234398 0.99519187 0.0020501185
1.0038365 -0.35135496 0.046952099 13746626 -0.090060458 -0.028659962 0.99552393 0.0029010903
1.0509224 -0.35716271 0.047842115 13680581 -0.14926659 -0.010298982 0.98874336 0.0018016521
1.095938 -0.3526797 0.049640968 13877962 -0.14288038 -0.010596735 0.98968321 0.0028690808
0.98455787 -0.34568828 0.042043865 13746374 -0.098515756 -0.019428056 0.99494582 0.0022032126
1.0231938 -0.34490159 0.043732546 14009544 -0.083974533 -0.016113201 0.99633765 0.0025598782
1.0519321 -0.34461242 0.047547266 14008006 -0.13722569 -0.0029590689 0.99053544 0.002157364
0.98229045 -0.33693263 0.042345315 13877960 -0.11347037 -0.033509169 0.99297613 0.0028362588
1.024178 -0.33267018 0.0434452 14009032 -0.066861019 -0.035697155 0.99712354 0.002710884
1.0461495 -0.33014676 0.048284739 13811140 -0.11583445 -0.017320275 0.99311751 0.0027854918
0.98292142 -0.32908964 0.042161062 13812167 -0.1264683 -0.027623277 0.99158597 0.002785912
1.0468184 -0.32183304 0.048089445 13680067 -0.11194143 -0.0071482542 0.99368912 0.0018193109
0.97563714 -0.31497091 0.043266252 13877703 -0.1205259 0.0063205482 0.99269015 0.0036188515
1.0159482 -0.31788766 0.044631898 13747140 -0.076345272 -0.0053494005 0.99706715 0.0039589903
1.050402 -0.31429467 0.047450632 13154239 -0.10277732 -0.035250336 0.99407959 0.0017879212
0.98481435 -0.30556074 0.041608319 13550276 -0.12415238 0.019329239 0.99207491 0.0034978692
0.99799639 -0.30070937 0.04737705 13615553 -0.12465541 0.011070057 0.99213839 0.00407357
1.0549612 -0.3069616 0.046662778 12956860 -0.099708617 -0.044279814 0.99403095 0.001730199
0.98721761 -0.29416147 0.041086957 13745603 -0.12110057 0.041748583 0.99176198 0.0039066514
1.0054338 -0.294532 0.04610163 13615040 -0.14230809 -0.0082877316 0.98978776 0.0049840752
1.0556344 -0.29859474 0.046466231 12430776 -0.09578722 -0.03719341 0.99470675 0.0028457351
1.0089921 -0.28727487 0.045446724 13680581 -0.16127074 0.0017772513 0.98690861 0.0048858924
1.0358665 -0.28527886 0.049385309 12365236 -0.10223748 -0.069214888 0.99234915 0.0054713143
0.99025327 -0.27489644 0.040380821 13679813 -0.13380273 -0.0063584009 0.9909876 0.0052770623
1.0096364 -0.27926487 0.045258552 13680063 -0.17449076 -0.017907759 0.984496 0.0042575616
1.0336047 -0.27638721 0.049638122 11772083 -0.10581381 -0.077202447 0.99138457 0.0055186674
1.0905252 -0.27181798 0.049497321 13420493 -0.1246003 -0.062246349 0.99025261 0.0050353641
0.98505276 -0.265661 0.041178107 11839670 -0.13122082 -0.01524571 0.99123597 0.0052070664
1.0106022 -0.26726121 0.044976562 11510944 -0.19449453 -0.013005964 0.98081738 0.0056926794
1.0342633 -0.2682026 0.049445853 11707569 -0.11804967 -0.077146262 0.99000645 0.0047318698
0.98860031 -0.25850287 0.040502831 14270133 -0.13765353 -0.037126943 0.98978436 0.0040987865
1.0047493 -0.25374386 0.045789301 14863299 -0.16920561 -0.056935221 0.98393488 0.0023963174
1.0316769 -0.25101212 0.049657628 12035493 -0.12723148 -0.015302417 0.99175501 0.0027478647
0.9390983 -0.2475736 0.041256353 13810888 -0.089991555 -0.054094918 0.99447232 0.0045896848
0.97980815 -0.2446567 0.041867986 13746372 -0.074945152 -0.066828854 0.99494576 0.0029078522
1.0024645 -0.24517076 0.046072334 13812421 -0.16977434 -0.04588569 0.98441416 0.0013647263
1.0362387 -0.24364869 0.048869029 12035242 -0.12809688 -0.01733258 0.99161023 0.0028550744
0.93154025 -0.23079628 0.042451739 13680065 -0.16080607 -0.019051271 0.98680216 0.0035496259
0.9748984 -0.23180717 0.042580366 13812169 -0.078317493 -0.065260008 0.9947902 0.003429756
1.0031029 -0.23723666 0.045885935 13615819 -0.14467874 -0.047880344 0.98831958 0.0016982344
0.93505675 -0.22399534 0.041762128 13811653 -0.16733734 0.0086546382 0.98586172 0.0028050086
0.96674174 -0.22237271 0.04388012 13746376 -0.061163928 -0.045384478 0.99709541 0.0037356173
1.0066698 -0.22987327 0.045228541 13746374 -0.15648039 -0.018836295 0.98750144 0.0012658947
0.94344896 -0.21810102 0.040210754 13548997 -0.1066317 -0.013196592 0.99421108 0.0043254462
0.95662242 -0.21270946 0.045512572 13877442 -0.073151477 -0.0041685957 0.99731213 0.0038146202
1.0017675 -0.21686496 0.045891792 13550019 -0.13157777 -0.019219765 0.99111956 0.0013795046
1.0284315 -0.21734548 0.049790129 12233139 -0.15810938 -0.00097094296 0.98742115 0.0020153651
0.93977404 -0.20226766 0.040721864 13615042 -0.12727113 0.0095774708 0.99182177 0.0033627502
0.97969157 -0.20916814 0.041541398 13680065 -0.073320292 -0.023060225 0.99704182 0.0038540571
0.99978822 -0.20449565 0.046085626 13680581 -0.11941049 -0.037759744 0.9921267 0.002475712
0.93744391 -0.19432412 0.041065082 13483713 -0.12801343 0.0010958621 0.99177182 0.0039642677
0.95784044 -0.19757016 0.045156911 13483206 -0.091375805 -0.017633421 0.99566036 0.0048616133
0.96724916 -0.19144015 0.043491527 13680585 -0.088355519 -0.018711004 0.99591327 0.0042965137
1.0004227 -0.19660713 0.0459003 13548995 -0.14319904 -0.048139568 0.98852247 0.002651376
0.94097126 -0.18738653 0.040372282 13483713 -0.11960481 -0.0071310564 0.992796 0.0042919111
0.97275543 -0.18456399 0.042484775 13548995 -0.077247307 -0.01877328 0.99683523 0.0043805181
1.0069329 -0.18963216 0.044767603 13483713 -0.12997273 -0.020470016 0.99130625 0.0037059609
0.93746871 -0.17556229 0.040889256 13483456 -0.12805012 -0.041705564 0.99089044 0.0044044405
0.973373 -0.17688805 0.042304456 13548995 -0.06705381 -0.028262094 0.99734902 0.0041976874
0.98013568 -0.1776474 0.049007252 13549506 -0.089687087 -0.045499124 0.99493021 0.0037516938
0.99350291 -0.17170787 0.046768591 13417409 -0.10609167 -0.03176048 0.99384898 0.0038625451
0.92612916 -0.16273087 0.042795479 13417922 -0.18401261 -0.032219529 0.98239571 0.0034072406
0.97399056 -0.1692121 0.042124122 13417922 -0.071837053 -0.04462282 0.99641776 0.0032720142
0.9941321 -0.16388766 0.046584874 13351616 -0.10100807 -0.022881778 0.99462247 0.0040698117
0.92897189 -0.15200022 0.042190164 13352128 -0.1623392 -0.021233067 0.98650652 0.0045041237
0.94972485 -0.15068829 0.046084061 13352129 -0.10550475 -0.030240014 0.99395895 0.0047767782
0.95794487 -0.15933314 0.04476577 13417922 -0.073080741 -0.030333165 0.99686468 0.0030259592
1.0197653 -0.15905786 0.046439439 13153977 -0.11585896 -0.009092682 0.99322408 0.0020523579
1.0267684 -0.15167645 0.049324721 12825009 -0.1059426 0.0067368695 0.99434942 0.0015251512
0.92593277 -0.14056733 0.042628035 13286334 -0.16254777 -0.015678048 0.98657614 0.0052291425
0.96210343 -0.1445826 0.043912128 13286336 -0.070456713 0.002555727 0.99751157 0.0027206559
0.99177444 -0.14389515 0.046761118 13482942 -0.092048436 -0.016998405 0.99560946 0.0027465154
0.95859605 -0.13277026 0.044395313 13286077 -0.08530958 -0.0082305921 0.99632049 0.0028300695
0.99959904 -0.13290419 0.04537262 13286077 -0.09236858 -0.015035005 0.99561137 0.0014828768
0.92779499 -0.12972215 0.042196661 13351101 -0.14949453 0.0046715792 0.98875153 0.004805278
0.95803106 -0.12132388 0.044379979 13154748 -0.085113935 0.014589654 0.9962644 0.0018766264
0.92238295 -0.11087717 0.042990208 13219514 -0.1185353 -0.030674424 0.99247593 0.0034688623
0.93849993 -0.11968744 0.04019478 13482688 -0.13180572 0.013402637 0.99118495 0.0039575589
0.96158791 -0.11405189 0.043702021 13286077 -0.10506191 0.0087827537 0.99442691 0.0029163251
0.98510551 -0.11587541 0.047556102 13154491 -0.095270149 -0.025324224 0.99512929 0.0017574443
1.0222909 -0.11482053 0.049613163 13285307 -0.090682149 -0.032030236 0.99536467 0.0022490716
0.93162185 -0.10060994 0.04124783 13154491 -0.10077105 -0.02957228 0.99447006 0.003602826
0.96514845 -0.10673436 0.04302299 13220282 -0.125333 -0.021756826 0.99187618 0.0019940326
0.98455834 -0.10419004 0.047523797 13154489 -0.088135354 -0.028613932 0.99569744 0.0017898729
0.95226657 -0.094469123 0.045101441 13154490 -0.10985751 -0.010243179 0.99389458 0.0034277604
0.98400933 -0.092527449 0.047492042 13155002 -0.086826742 -0.039341126 0.99544638 0.001773341
1.0309811 -0.099315263 0.04809466 13219514 -0.077599242 -0.0042321044 0.99697572 0.0027329789
0.93378282 -0.086052082 0.040729217 13088185 -0.086437918 -0.022623919 0.99600035 0.0028488024
0.96401656 -0.083864406 0.04299286 13022905 -0.13282588 -0.029201198 0.99070913 0.0026979514
0.98166716 -0.084668055 0.047791809 13022903 -0.092498563 -0.029054247 0.99528885 0.0017340056
0.89688057 -0.073429912 0.040037781 13022651 -0.095747322 0.00049501756 0.99540555 0.0035820468
0.92529964 -0.074623331 0.042138547 13153462 -0.083967797 -0.017958574 0.99630666 0.0022892887
0.96462375 -0.076317526 0.042815566 13285305 -0.13082193 -0.046873458 0.99029726 0.0028073601
0.97438246 -0.076624386 0.048894629 13153723 -0.11656734 -0.035681535 0.99254167 0.0023337621
1.017421 -0.070508525 0.049880341 12957371 -0.077592812 -0.015461411 0.99686527 0.0028862546
0.89251792 -0.066198252 0.0407888 12826555 -0.10953797 0.016750088 0.99384147 0.0031467436
0.92942816 -0.060214784 0.041270226 12825526 -0.081308559 -0.027436672 0.99631131 0.0024956493
0.93673611 -0.067797028 0.040035456 12759731 -0.11493109 -0.02960497 0.99293226 0.0028954982
0.95170498 -0.064511634 0.044904806 12891830 -0.12365064 -0.043083321 0.99139017 0.0027204668
0.97925651 -0.065336093 0.047983557 13022651 -0.094345741 -0.025569284 0.99521112 0.0021873638
0.89604026 -0.059291344 0.040074006 12957371 -0.08139763 -0.0051722527 0.99666834 0.0025523733
0.94667041 -0.053211 0.045653582 12825524 -0.13473178 -0.044408936 0.98988646 0.002527962
1.0186976 -0.054640349 0.049507573 13022133 -0.096359506 -0.02388953 0.99505997 0.0033448488
0.92487013 -0.049206112 0.041982979 12825012 -0.094551101 -0.030186011 0.99506229 0.0025887056
0.94726533 -0.045815978 0.045479864 13087415 -0.13097036 -0.056781251 0.98975891 0.0021597878
0.76172936 -0.030513864 0.044365562 9346704 -0.74885285 -0.66267788 0.0087973112 0.024246844
0.77567828 -0.03646408 0.04638838 13225935 -0.66602254 -0.74418354 0.051037785 0.025118807
0.92158234 -0.034713142 0.042437255 11644834 -0.10002138 -0.030369133 0.99452174 0.0025069278
0.75647533 -0.025030669 0.046013605 11317436 -0.83426726 -0.55133075 -0.005702632 0.024765998
0.74818671 -0.013090551 0.04522194 9276304 -0.91469347 -0.40265349 0.034728155 0.033675011
0.75116134 -0.018039936 0.044736933 9672865 -0.82875377 -0.55905068 0.025090102 0.017438117
0.74720228 -0.0046947026 0.045727015 6779219 -0.97940713 -0.16159928 0.12102645 0.035679191
0.74807358 0.0055370783 0.045508653 5792046 -0.97235769 0.17503904 0.15453747 0.037193164
0.74790549 0.01597634 0.044941179 5857588 -0.88826466 0.44819319 0.10054303 0.017748021
0.75016546 0.01269045 0.045686096 6186802 -0.90963572 0.40080047 0.10918712 0.022486206
0.7541728 0.02305303 0.04453576 5856308 -0.83390826 0.54251999 0.10133626 0.021661004
0.76027417 0.028058887 0.043425158 5922092 -0.84515363 0.51336527 0.1489011 0.038166225
0.92055738 0.050964821 0.041837409 12298665 -0.099384636 0.018965045 0.99486834 0.0075371685
0.91643041 0.061179761 0.042480499 12363686 -0.099389769 0.018953875 0.99486804 0.0075355093
0.94849652 0.067991063 0.044158638 12298921 -0.13496812 -0.0042088893 0.99084103 0.0046922397
0.87638408 0.077425443 0.042571917 14011868 -0.016727678 -0.045371022 0.9988302 0.0096223122
0.91479152 0.071563967 0.042678088 12166564 -0.092018835 0.031559657 0.99525708 0.0089506675
0.94938165 0.078992486 0.043900192 12298150 -0.12731646 0.0021953471 0.99185973 0.0043460727
0.87892854 0.084469758 0.042038068 13682903 -0.011692427 -0.044517305 0.99894017 0.0087438757
0.91571462 0.089190111 0.042352319 12035491 -0.10457505 -0.0090950746 0.99447542 0.007337722
0.92014277 0.082718223 0.041621298 12034978 -0.14399126 -0.015923446 0.98945087 0.0044939774
0.94776434 0.089672543 0.044071898 12298152 -0.12854494 -0.0128057 0.99162102 0.004431427
0.97404206 0.085513659 0.04726553 12363945 -0.059127524 -0.0094597274 0.99820566 0.0025967695
1.0181696 0.086810194 0.04803142 12364203 -0.098421581 -0.017983695 0.9949823 0.0023440388
0.92128748 0.096946433 0.04128705 11969187 -0.15045691 -0.039751589 0.98781705 0.0041909725
0.93512678 0.098817028 0.046139136 12232357 -0.14821841 -0.027788388 0.98856419 0.0034888592
0.96843719 0.095952116 0.048069865 12363946 -0.099859476 0.020580273 0.99478871 0.0025509177
1.0188006 0.094653182 0.047847167 12364203 -0.098379903 -0.018030228 0.99498558 0.00235064
0.84878218 0.10010067 0.040832043 13286865 -0.17734107 -0.067138024 0.98185676 0.005321844
0.92686629 0.10477868 0.040219992 12100514 -0.14742352 -0.033960424 0.98849028 0.0040341592
0.93057221 0.10883657 0.043183237 12166051 -0.14008009 -0.033247434 0.98958182 0.0022291041
0.96903765 0.10341548 0.047894537 12232360 -0.084268868 0.0024847984 0.99643993 0.0027581346
1.0040096 0.10815737 0.049992338 12232360 -0.084947921 -0.02708477 0.99601722 0.0035409417
0.93386316 0.11642642 0.044365197 12100517 -0.13358209 -0.0090889912 0.99099606 0.0022612982
0.97023857 0.11834218 0.047543883 12231846 -0.091059104 -0.016321557 0.99571168 0.0016431576
0.9806717 0.11246113 0.045905858 12362663 -0.056782927 -0.026774075 0.9980275 0.0023782819
0.9215706 0.12507004 0.040979579 11706015 -0.15032913 0.0052427249 0.98862213 0.0026807352
0.93744797 0.12766825 0.045461357 12166564 -0.11125235 0.010145614 0.99374044 0.0023537206
0.97083902 0.12580556 0.047368556 12167077 -0.090640433 -0.0045809271 0.99587315 0.0016446487
0.84841442 0.13237102 0.040649205 13155279 -0.10851821 0.08912272 0.99009138 0.0064587658
0.88330704 0.13889228 0.040759563 12233399 -0.073531009 -0.006657864 0.9972707 0.0076455749
0.91411173 0.13077697 0.042258412 11903905 -0.10986222 -0.010212012 0.9938944 0.0025553682
0.93831843 0.13848746 0.045207202 12100772 -0.12104703 0.01343148 0.99255598 0.0026391093
0.97425187 0.13741712 0.046692103 12034981 -0.080368191 0.0085828034 0.99672836 0.0017387816
0.91524422 0.14485331 0.041927725 12099742 -0.10105464 0.00011256803 0.99488086 0.0038437545
0.96962202 0.14765021 0.047339797 12034981 -0.077768184 0.006659369 0.99694926 0.0018165722
1.0071157 0.14676489 0.049085364 12100774 -0.091274649 0.03141994 0.99532998 0.0026396895
0.92083836 0.15287536 0.040856212 11969439 -0.093909539 0.00082806405 0.99558043 0.0029482443
0.94450963 0.15387852 0.04400041 12100516 -0.11884376 0.011217651 0.99284965 0.0020288306
0.96447778 0.15765189 0.048073664 12034724 -0.10663077 0.019442473 0.99410862 0.0018995905
1.0077369 0.15448637 0.048903972 12166566 -0.097536147 0.035639223 0.99459368 0.0025627026
0.92442626 0.16056465 0.04014574 11772571 -0.096487455 -0.0069370857 0.99531007 0.0030878312
0.93531406 0.16270989 0.045483366 11968928 -0.097017571 0.013543828 0.9951905 0.0027354783
0.97141784 0.16997191 0.04681541 12166053 -0.086738065 0.027363915 0.99585527 0.002086991
1.0029299 0.1687468 0.049492374 11969439 -0.086047962 0.040030189 0.99548644 0.0029237194
0.88279063 0.17549415 0.040544361 11771548 -0.14967817 -0.0033265073 0.98872924 0.0034405775
0.90542024 0.17037138 0.043447614 11771809 -0.10167783 -0.050792702 0.9935199 0.0030964734
0.94273138 0.17486961 0.044098936 11837341 -0.10349924 0.010563693 0.99457341 0.0032500944
0.96899086 0.17677598 0.047139972 11902881 -0.092441417 0.017126432 0.99557084 0.0014427977
1.0096005 0.17765088 0.048359782 11837853 -0.095734581 0.015421317 0.99528748 0.0025848267
0.88209629 0.18530086 0.040590256 11771549 -0.14325845 -0.0012239739 0.98968458 0.0036072345
0.91130018 0.18194671 0.042292625 11771296 -0.075967818 -0.028614489 0.99669963 0.0023068336
0.94007254 0.1849162 0.04445456 11837599 -0.09833274 -0.00529397 0.99513954 0.003192421
0.96584785 0.18700466 0.047545582 11837345 -0.09901762 0.021126179 0.99486142 0.0018176469
1.0162781 0.18664609 0.047225073 11837601 -0.10734607 0.0061423918 0.99420279 0.0025142799
0.90911543 0.19169722 0.042593405 11837342 -0.07279285 0.0098993517 0.997298 0.0030665486
0.94267064 0.19258352 0.043936372 11902881 -0.086186714 0.0032798883 0.99627364 0.0032942735
0.97381234 0.19973427 0.046116233 11706013 -0.10148839 0.012353103 0.99476004 0.0018354192
1.0023682 0.19876814 0.049248815 11705502 -0.079824612 -0.0015979931 0.99680763 0.0027245879
1.016903 0.19441311 0.047042608 11771296 -0.11500156 0.0077704759 0.99333495 0.0034152614
0.90995568 0.20214064 0.042348057 11771292 -0.094616294 0.034030594 0.994932 0.0036921687
0.94888479 0.20825928 0.042722896 11903133 -0.097847074 -0.0053559449 0.9951871 0.0033827764
0.95133185 0.20173581 0.042369023 11837342 -0.095202401 0.012118952 0.99538422 0.0021041811
0.9620685 0.20781013 0.047944903 11705758 -0.12181997 -0.0093467273 0.99250823 0.0031229199
1.0029839 0.20642132 0.049069017 11574168 -0.075217575 -0.010867891 0.99710798 0.0026509201
0.90877372 0.21205378 0.042468414 11574170 -0.11961918 0.040842433 0.99197942 0.002451645
0.93935472 0.21293381 0.044303507 11705502 -0.080462664 -0.016836807 0.99661541 0.0032088405
0.99854046 0.21286124 0.049687237 11574168 -0.066404618 -0.041366812 0.99693495 0.0013036367
0.91315359 0.22343647 0.041582868 11508375 -0.097622909 0.045180615 0.99419743 0.0025868881
0.94860971 0.22946601 0.042562783 11508377 -0.10654094 -0.0042603929 0.99429923 0.005357611
0.95005149 0.2227608 0.042382225 11573916 -0.10568736 0.0063527105 0.99437916 0.0049817087
0.9673003 0.22354379 0.046929404 11376794 -0.12320998 -0.01229855 0.99230444 0.0044254269
1.0004709 0.22452284 0.049259394 11638935 -0.061016105 -0.030281859 0.99767733 0.001248056
0.91045046 0.23289502 0.041978806 11244952 -0.13719629 0.0085110161 0.99050736 0.0036220781
0.94441557 0.2388984 0.043186411 11377307 -0.086257391 -0.021321958 0.99604475 0.0056585581
0.96443248 0.23719284 0.047254652 11376020 -0.12176832 -0.008988725 0.99251783 0.0051474739
0.91303641 0.24043305 0.041448489 11048085 -0.14181697 0.0039442917 0.98988509 0.0037178027
0.95263612 0.24461576 0.049098656 11179671 -0.084443733 -0.0093279872 0.99638462 0.0063162525
0.92046946 0.2528578 0.040008619 10980238 -0.095545359 -0.011956865 0.99535328 0.0053203832
0.95421189 0.25460938 0.043833736 10454665 -0.087670282 -0.0084267939 0.9961139 0.006143169
0.99916977 0.25768781 0.049095884 9664389 -0.077489823 0.010529472 0.99693757 0.0016136047
0.91652083 0.26528972 0.040599644 11705506 -0.14677143 -0.010013123 0.98911977 0.0031302804
0.92568052 0.26460204 0.04613246 11442844 -0.12374163 -0.019574314 0.9921214 0.0062947753
0.93527049 0.26067159 0.044534385 11045524 -0.10025404 -0.0053991862 0.99494725 0.0062600905
0.96802521 0.2633633 0.046397641 12296620 -0.094635434 0.025652748 0.99518144 0.0037163293
0.9997806 0.26528022 0.048917517 12561322 -0.086148247 0.011983904 0.99621028 0.0018809487
0.91583711 0.27524433 0.040630698 11376538 -0.1318001 -0.034545224 0.99067426 0.0033373304
0.92929727 0.27261811 0.045437023 11442843 -0.10881669 -0.012104309 0.99398822 0.0064746854
0.96920902 0.27807739 0.046051979 11442584 -0.086635478 0.012828045 0.99615747 0.0034872903
0.97166669 0.27165306 0.045718476 11442331 -0.084928788 0.014701559 0.99627858 0.0034689687
0.99429101 0.2710523 0.049705327 11573917 -0.11135264 0.008101806 0.99374795 0.0022838223
0.91362453 0.28464943 0.040939599 11376282 -0.11896426 -0.050687149 0.99160397 0.0046489034
0.93698752 0.28201389 0.044033021 11376791 -0.071596928 -0.067978337 0.99511451 0.0049493033
0.97285414 0.28641269 0.045371741 11244951 -0.096922897 -0.020690734 0.99507684 0.0020446249
1.0013076 0.28426132 0.048471615 11572889 -0.10027957 -0.016925301 0.99481535 0.0014241245
0.90835178 0.29292515 0.041804865 11309977 -0.11334876 -0.064514294 0.99145854 0.0026622384
0.94090116 0.29371983 0.043250881 11244694 -0.061589252 -0.044914771 0.99709046 0.0033009476
0.95977646 0.29639491 0.047397852 11244181 -0.067544617 -0.073141798 0.99503171 0.0027579572
0.97344786 0.29379258 0.045198381 11310744 -0.096073888 -0.036500748 0.99470478 0.0010862784
0.99488729 0.29696569 0.049327418 11309975 -0.10724435 -0.035789743 0.99358833 0.0017621958
0.90765429 0.30270895 0.041839942 10982036 -0.089431189 -0.069803715 0.99354398 0.0019088495
0.9173981 0.30941117 0.047108322 11178642 -0.089797661 -0.047414932 0.99483079 0.0028896544
0.92907798 0.30683115 0.045140415 11046802 -0.09763851 -0.064082243 0.99315667 0.0030977495
0.93156958 0.3008619 0.044773519 11112595 -0.084289931 -0.048646841 0.99525309 0.0028630779
0.96473384 0.30871958 0.046462432 11178389 -0.070768736 -0.090949073 0.99333787 0.0019465423
0.9942674 0.30776259 0.049304634 11244433 -0.098301917 -0.052184369 0.99378747 0.0014269872
0.87665194 0.31429276 0.040506884 10915470 -0.11195444 -0.063077047 0.99170941 0.0021557563
0.9049145 0.31171194 0.04224658 11112334 -0.12087584 -0.051289339 0.99134171 0.0021579764
0.961532 0.31821558 0.046885222 10981010 -0.084802486 -0.09637358 0.9917261 0.003519994
0.99487275 0.31528676 0.049127877 11047572 -0.082119428 -0.079962723 0.99340951 0.0020610646
0.90574187 0.32199588 0.042004973 10783628 -0.089046419 -0.0061623114 0.99600846 0.0020190661
0.92816824 0.3201493 0.045165628 10914957 -0.089016132 -0.050447423 0.99475187 0.0038717482
0.93077672 0.32794568 0.044644386 10914959 -0.10206857 -0.024136079 0.99448454 0.0044306759
0.95832175 0.32760906 0.047310442 10981266 -0.082689315 -0.058901846 0.99483323 0.004406515
0.87647718 0.3367033 0.040348798 10520710 -0.083685912 -0.06805896 0.99416536 0.0036051744
0.89968777 0.33286124 0.042986035 10653068 -0.080997407 -0.020229576 0.99650902 0.0027561975
0.94465554 0.33643734 0.049444392 10980752 -0.092867382 -0.028191742 0.99527931 0.0054826541
0.86449498 0.34755862 0.042488158 10323329 -0.13699222 -0.055507347 0.9890157 0.0047317236
0.90050936 0.34307304 0.042746127 10520708 -0.064811409 -0.026015595 0.99755836 0.0027508624
0.93827283 0.34108475 0.043236956 10718348 -0.13331436 -0.026618261 0.99071628 0.004922207
0.94295758 0.34614152 0.049620092 10849423 -0.14202069 -0.051130127 0.98854232 0.0058449092
0.87219441 0.35721862 0.040971935 10257278 -0.11595254 -0.023009375 0.99298823 0.0055470667
0.90822405 0.35284773 0.04128021 10586501 -0.10910877 -0.03923149 0.99325538 0.0039468608
0.92763925 0.35051295 0.044959441 10652555 -0.12068521 -0.036597803 0.99201602 0.0052778819
0.94865209 0.35530356 0.048597515 10783630 -0.07321839 -0.0084105255 0.99728048 0.005685525
0.85786229 0.36344784 0.043588355 10125690 -0.12799649 0.0054667648 0.9917596 0.0063485769
0.89551842 0.36715299 0.043416724 10191486 -0.093111157 -0.038666476 0.99490464 0.0031551321
0.90802628 0.36269191 0.041225553 10323330 -0.093401499 -0.062218677 0.99368256 0.004195333
0.91342998 0.36474919 0.04724516 10323074 -0.11178017 -0.0571732 0.99208695 0.0048593851
0.9264344 0.36016396 0.045070812 10454917 -0.12246834 -0.031613439 0.99196881 0.0057159299
0.94467461 0.36748382 0.049118727 10520712 -0.0768895 0.0052084019 0.99702603 0.0049518552
0.95537782 0.36495864 0.047401845 10520712 -0.080115139 0.017434871 0.99663317 0.0055773323
0.86659622 0.37367657 0.041874602 10190715 -0.14023185 0.023378747 0.98984265 0.0050835456
0.88887697 0.37071827 0.044569269 10125692 -0.094291113 -0.0074652149 0.99551672 0.006936816
0.91785413 0.3766447 0.046374068 10125952 -0.096172594 -0.020648589 0.99515051 0.0043907892
0.9503783 0.37675971 0.048093453 10323333 -0.085063107 0.011758698 0.99630624 0.0034405908
0.988437 0.3709729 0.049512595 10783630 -0.074335784 -0.03048533 0.99676722 0.0015491223
0.87354964 0.38635531 0.040471643 10059381 -0.1041025 0.029461823 0.99413019 0.005238418
0.88638043 0.38889706 0.044848651 10059897 -0.10123685 0.030227162 0.99440306 0.005271343
0.89584833 0.38355711 0.043207973 9928313 -0.096049368 -0.0090082148 0.99533582 0.0048233741
0.91841 0.38355386 0.046211749 10256509 -0.079970732 0.002729496 0.99679345 0.0050927917
0.9622494 0.38875124 0.046035558 10126724 -0.072907306 -0.012360487 0.99726212 0.0044461032
0.87331492 0.39572892 0.040435612 10256758 -0.10600937 0.015950702 0.99423718 0.0046056099
0.89103198 0.3975043 0.043940008 10124922 -0.11470211 0.012307115 0.99332368 0.0039321464
0.92616081 0.39370126 0.044790074 10060412 -0.08015018 0.0011501806 0.99678212 0.0048248507
0.95518881 0.39958128 0.047072902 10125692 -0.10631584 -0.003518125 0.99432617 0.0056654881
0.90083539 0.40863681 0.042088971 10124665 -0.1171157 0.011480246 0.99305195 0.0043552639
0.92494291 0.40318903 0.04490526 9994102 -0.063090511 0.029055422 0.99758476 0.0037400695
0.95296764 0.40894404 0.047337383 9994105 -0.10506197 0.0044884714 0.99445558 0.0052119466
0.91912878 0.41711336 0.045761451 9862520 -0.079757094 0.012126882 0.99674058 0.0037627076
0.93596876 0.41827828 0.046453826 9928567 -0.10183735 0.0062329113 0.99478155 0.0045362366
0.93951428 0.42657983 0.049345136 9862520 -0.10300538 0.0049299262 0.9946686 0.0043280083
0.9569205 0.42110589 0.046567246 10059900 -0.11213666 5.2201569e-05 0.99369282 0.0049179173
0.98455733 0.45842957 0.049150974 9730933 -0.14375137 0.019354926 0.98942459 0.0016182732
1.155688 -0.78379959 0.055401251 13615050 -0.14255324 -0.049860764 0.98853046 0.0034537914
1.1744161 -0.78578287 0.052811399 14141136 -0.12819527 -0.017325148 0.99159765 0.0024750198
1.161935 -0.76793182 0.054334685 13944015 -0.13917325 -0.043997411 0.98929018 0.0039002351
1.1064435 -0.75294572 0.052751839 13616079 -0.094189532 -0.052352138 0.99417686 0.0024322823
1.1909311 -0.75481445 0.059909716 13944784 -0.11395407 -0.019954748 0.9932856 0.0028660248
1.1147293 -0.74871832 0.051481873 13418700 -0.099520028 -0.046406448 0.99395281 0.0026033225
1.1201884 -0.74259228 0.05060631 13616079 -0.12275545 -0.052958291 0.991023 0.0025115332
1.145649 -0.74795461 0.056363031 13550799 -0.1331854 -0.058100902 0.98938668 0.003819816
1.1511366 -0.74152428 0.05551818 13681613 -0.13801914 -0.052322745 0.98904657 0.0038612143
1.0572882 -0.72208101 0.050874352 13352907 -0.086326294 0.013814456 0.99617118 0.0020843348
1.1010531 -0.72118521 0.053176343 13550027 -0.079672389 -0.028991638 0.9963994 0.0022792444
1.1395618 -0.72476661 0.056928381 13944014 -0.12400991 -0.038900062 0.9915182 0.0032167849
1.0579833 -0.71344078 0.050671384 13352648 -0.099090278 0.043925896 0.9941085 0.0025976265
1.117654 -0.71236581 0.050627887 13615050 -0.11238683 -0.029417476 0.99322897 0.0036113253
1.1441017 -0.71775919 0.05620873 13747406 -0.11467192 -0.024910185 0.99309111 0.0033126676
1.0904132 -0.70529169 0.054558933 13615050 -0.083319128 -0.013391226 0.99643296 0.0028696654
1.1448488 -0.70847368 0.055990607 13681612 -0.1189255 -0.012415215 0.99282557 0.0034333926
1.0994252 -0.69203699 0.053076923 13680845 -0.08237046 0.010769613 0.99654359 0.0022051383
1.1332448 -0.69208032 0.057409376 13878473 -0.10588708 0.030117653 0.993922 0.0032329608
1.1870178 -0.69215429 0.059618413 14141393 -0.10787775 0.026288234 0.99381655 0.0024007212
1.1039387 -0.68531847 0.052333772 13680843 -0.087110676 0.007878012 0.99616754 0.0021387178
1.14709 -0.68061703 0.055336177 13944268 -0.11761198 0.017358754 0.99290794 0.0028255053
1.108457 -0.67853922 0.051589191 13680842 -0.095451631 0.016149849 0.99530309 0.0021222185
1.1263783 -0.67858028 0.058202311 13878221 -0.10443304 0.022521794 0.99427688 0.0033111395
1.1057434 -0.66288662 0.051806793 13681352 -0.098787852 0.032904405 0.99456441 0.001226326
1.1440294 -0.66923559 0.055623844 13944268 -0.099711664 0.0075679403 0.99498761 0.001214528
1.1893322 -0.6633867 0.058942601 14207179 -0.1211234 -0.038258143 0.99189997 0.0029506462
1.1447741 -0.65998042 0.055406421 13878475 -0.095425978 -0.0019486818 0.99543464 0.0015790035
1.1901037 -0.65379745 0.058717325 14075850 -0.12541458 -0.038056184 0.99137431 0.0027756821
1.1030201 -0.6473555 0.052027255 13550024 -0.099840656 0.026372775 0.99465388 0.0012760849
1.140753 -0.64818138 0.055823043 13877962 -0.11503753 0.0031906711 0.99335599 0.0013848805
1.103739 -0.63841927 0.051817328 13681096 -0.10314947 0.0054639485 0.99465096 0.00094924698
1.1376793 -0.63695937 0.056114465 13812678 -0.11578898 0.0080487672 0.99324125 0.0012978166
1.1048188 -0.62499964 0.051502064 13680838 -0.11253711 0.0079689575 0.99361563 0.00062388065
1.1384184 -0.62777251 0.055898651 13812678 -0.12477468 -0.00094007421 0.9921847 0.00056875177
1.1058959 -0.61161035 0.051187515 13746885 -0.10416448 -0.006246971 0.99454051 0.0012480546
1.1353378 -0.6166417 0.056192189 13878471 -0.12022498 0.0043959143 0.99273694 0.00058088667
1.1774864 -0.61275673 0.059852242 14075596 -0.13601364 -0.0036796154 0.99070013 0.0044337478
1.1360745 -0.60748523 0.055977076 14009546 -0.13165547 -0.008844207 0.99125612 0.0013989259
1.1406358 -0.60021192 0.055251196 13943753 -0.12487048 -0.02070008 0.99195713 0.0021855892
1.098982 -0.5987851 0.052056879 13681092 -0.10294401 -0.034435652 0.99409091 0.0017663591
1.1073338 -0.59373778 0.05076766 13812678 -0.10213119 -0.037700437 0.99405628 0.0016776946
1.1413749 -0.59102517 0.055035368 14010059 -0.12779275 -0.028111555 0.99140245 0.0023661524
1.1861025 -0.59223056 0.058451682 14009546 -0.11551584 0.0077058971 0.99327576 0.0049110353
1.1382846 -0.58001584 0.055331767 13944266 -0.12972826 -0.021250919 0.9913218 0.0024782859
1.0851249 -0.5734992 0.053804159 13746626 -0.10769913 -0.033434715 0.99362117 0.0019767955
1.0829614 -0.56335521 0.054004833 13812419 -0.12500863 -0.024654347 0.9918493 0.0023163522
1.1351891 -0.56906712 0.055629611 14141132 -0.14155519 -0.020063959 0.98972702 0.0021041986
1.0903597 -0.55781406 0.052850351 13812678 -0.096159279 -0.026808966 0.99500489 0.0019743631
1.1362903 -0.55537796 0.055308029 14010057 -0.14004229 -0.020503778 0.98993325 0.0025253876
1.0952508 -0.54639971 0.051996872 13615302 -0.091608308 -0.0035885449 0.99578863 0.0017661122
1.1373917 -0.54168886 0.054986447 14075850 -0.13827446 -0.00077778287 0.9903937 0.0026477596
1.1333234 -0.53047436 0.055416793 14141645 -0.12651765 0.0070880037 0.99193907 0.00230515
1.0886463 -0.52972889 0.052775905 13944264 -0.13272624 0.0026533718 0.99114919 0.0040394985
1.0868249 -0.51533312 0.052876689 13878472 -0.14027607 0.00084363093 0.99011207 0.0044340417
1.1302104 -0.51974601 0.055719793 14075593 -0.10343992 -0.028457187 0.99422854 0.0033853727
1.0907592 -0.50346667 0.052158952 14009546 -0.12697187 -0.0214967 0.99167335 0.0043278066
1.1355169 -0.50321001 0.054776296 14075852 -0.078389287 -0.0060881013 0.99690425 0.0032178271
1.0914634 -0.4947125 0.051953301 13681862 -0.14863575 0.018292382 0.9887228 0.0047526886
1.1763922 -0.4903253 0.058419138 14207438 -0.13657545 0.008685234 0.99059159 0.0029367283
1.0892836 -0.48477355 0.052158788 13878471 -0.15160684 0.026638053 0.98808187 0.0047159637
1.1250551 -0.4849757 0.056013048 13944524 -0.084476441 -0.010671853 0.99636829 0.0025309473
1.0822896 -0.47294298 0.053051516 13812678 -0.1836312 0.044130545 0.98200411 0.0038056399
1.1732846 -0.4794834 0.058689177 14207438 -0.13271481 0.03712713 0.99045867 0.0049458025
1.0829872 -0.46427241 0.052847818 14141134 -0.17327797 0.048572369 0.98367453 0.0039650188
1.1145712 -0.46701476 0.057256222 14207440 -0.12947452 0.026324674 0.99123329 0.0053100409
1.165341 -0.46691814 0.059574708 14207438 -0.1343793 0.048464295 0.98974413 0.005379322
1.0917422 -0.45421401 0.05144088 14009549 -0.16513692 0.050103907 0.98499721 0.0038311242
1.1152878 -0.45810887 0.057046995 14141645 -0.11436135 0.04663334 0.99234414 0.0027323395
1.1622207 -0.45623562 0.059848517 14075339 -0.088707246 0.023064354 0.99579072 0.0044802758
1.1160043 -0.44920292 0.056837782 14141645 -0.11230252 0.02242489 0.99342102 0.0015771163
1.1629653 -0.44698048 0.059631094 14206925 -0.098179422 -0.012501067 0.99509025 0.0054628868
1.0889378 -0.43968883 0.051684991 14009800 -0.14304408 0.024991747 0.98940074 0.0025942612
1.0963936 -0.43343413 0.050513744 13877960 -0.13185139 0.030615177 0.99079663 0.0019154362
1.120944 -0.43722621 0.05600138 14009802 -0.11890431 0.023981899 0.99261612 0.0014972801
1.1896402 -0.43695793 0.055984721 14141645 -0.13003229 -0.010057096 0.99145877 0.0058165435
1.0970979 -0.42468005 0.050308093 14140618 -0.12315258 0.0048026284 0.99237621 0.0020540298
1.12976 -0.42649502 0.05463922 14075339 -0.12188134 0.030014396 0.99209076 0.0013995514
1.1816772 -0.42463562 0.056875944 14141645 -0.12059119 -0.0088220974 0.99266309 0.0055968179
1.0949032 -0.41492316 0.050517857 14009030 -0.11433673 -0.011274081 0.9933781 0.0017355699
1.1188704 -0.41357926 0.056000903 14272718 -0.1217428 0.0042706057 0.99255258 0.0017753833
1.0917379 -0.4048852 0.050867379 14140616 -0.11005205 -0.020454392 0.99371535 0.001376783
1.1157131 -0.40339738 0.056316763 14075852 -0.10582663 -0.022699395 0.99412549 0.0017249484
1.1572146 -0.40715832 0.059876293 14207438 -0.10311257 -0.032173395 0.99414927 0.0038349838
1.0846976 -0.39363164 0.051773652 14010057 -0.11132111 -0.024013348 0.99349433 0.0018059621
1.1241792 -0.39701292 0.055056691 14207438 -0.10349342 -0.037465151 0.99392432 0.00118074
1.1618359 -0.39918622 0.059164241 14207436 -0.10404916 -0.040670253 0.99374026 0.0036216932
1.0786157 -0.38281107 0.052543774 14010057 -0.11287066 -0.019626882 0.99341583 0.0017489889
1.1287769 -0.38929176 0.054320276 14207436 -0.10848923 -0.0282625 0.9936958 0.0010646613
1.1625774 -0.38996902 0.058947712 14141643 -0.11605716 -0.0066955662 0.99321997 0.0025460706
1.0793065 -0.37422407 0.052342042 14010059 -0.12556089 -0.0051504732 0.99207258 0.0027197141
1.1217364 -0.37795559 0.055164039 14141643 -0.1003622 -0.021437382 0.99471998 0.0016111647
1.1555452 -0.37844384 0.059726492 14141645 -0.10975368 -0.0032335711 0.99395359 0.0015363953
1.0837379 -0.36235395 0.051551029 14009546 -0.1184684 -0.016628273 0.99281865 0.0019948173
1.1108024 -0.36558646 0.056538582 14010059 -0.11625773 -0.031064579 0.99273312 0.0031789218
1.1562818 -0.3692874 0.059511378 14075852 -0.10960851 -0.027104901 0.9936052 0.0026120134
1.1115116 -0.35677165 0.056331515 13813450 -0.11361939 -0.035120927 0.99290341 0.002877821
1.1531266 -0.35903767 0.059795365 14075852 -0.10188073 -0.026561005 0.99444199 0.0020974926
1.1616493 -0.35203731 0.058581382 13944266 -0.074509464 -0.01558858 0.99709851 0.0021417779
1.1161091 -0.34905052 0.055595085 13879243 -0.10854755 -0.037191927 0.99339533 0.0029776085
1.0781853 -0.33878186 0.052094728 14009548 -0.12835202 0.0010331003 0.99172813 0.0018085834
1.0856763 -0.33208668 0.050913155 13812167 -0.13216044 -0.0058434047 0.99121118 0.0018306519
1.1051483 -0.33701539 0.056977481 13944266 -0.13595785 -0.0099569084 0.9906646 0.002982192
1.1159416 -0.32642108 0.055340976 14009801 -0.11995296 -0.0080304397 0.99274707 0.0035132016
1.1511865 -0.32131857 0.059565201 14141132 -0.086979404 -0.020902237 0.99599081 0.0015190939
1.0734391 -0.31135657 0.052474782 14009800 -0.1500473 0.0089523625 0.98863828 0.0024781034
1.1072612 -0.3107532 0.056360528 14009800 -0.1323925 0.0083040278 0.99116266 0.0041048918
1.1519176 -0.31223047 0.059351712 14141134 -0.08889363 -0.031052351 0.99555701 0.0017473944
1.0848334 -0.30552775 0.050728217 14140616 -0.13619305 0.010392478 0.99062783 0.0027865286
1.1079656 -0.30199912 0.056154877 13877960 -0.13217165 0.018253947 0.99105877 0.0043936493
1.0816274 -0.29599848 0.051089659 13944005 -0.11224577 -0.003605868 0.99367398 0.0031376237
1.1086699 -0.29324505 0.055949226 13746374 -0.135564 0.017775463 0.99060911 0.0045784758
1.1530143 -0.29859823 0.059031457 13944265 -0.09625303 -0.004205016 0.99534804 0.0025582695
1.0754914 -0.28584602 0.051875487 13943239 -0.10245721 -0.067274183 0.99246001 0.0037148921
1.0986342 -0.28206804 0.057213008 13878214 -0.12118366 -0.061848 0.99070144 0.0048983209
1.0693473 -0.2757999 0.052663803 14009550 -0.081572287 -0.072270319 0.99404377 0.0046078367
1.1139864 -0.27658764 0.055002853 13813196 -0.11715923 -0.042693593 0.99219507 0.004731189
1.1186035 -0.26862353 0.054260731 13812682 -0.11788048 -0.045355663 0.99199152 0.0053422521
1.0280952 -0.2585277 0.050295874 6047538 -0.19454737 -0.041654892 0.9800083 0.0033690904
1.0433593 -0.25315377 0.05622904 7954534 -0.13091788 -0.026814707 0.99103051 0.0028763034
1.1085526 -0.25763637 0.055528969 12954512 -0.11232485 -0.036146149 0.99301392 0.0049143578
1.0643957 -0.24475679 0.053032003 13943495 -0.075933561 -0.042187549 0.99622005 0.0041865143
1.0828273 -0.24377777 0.058949918 13747914 -0.051504567 -0.035612512 0.99803758 0.0041653924
1.0688324 -0.23281838 0.052239388 13680833 -0.072567418 -0.028587049 0.99695379 0.0042108661
1.0874311 -0.2359807 0.058211699 13944007 -0.062333368 -0.038543958 0.99731088 0.004057291
1.1067398 -0.2307436 0.055452242 13550797 -0.11532013 -0.030502424 0.99285996 0.0043005412
1.0274529 -0.22950853 0.050075859 11969965 -0.14931387 -0.010364389 0.98873556 0.0017399738
1.0587392 -0.22247534 0.053606048 13615040 -0.097030833 0.012372651 0.99520451 0.0026243599
1.1035173 -0.22137421 0.055787191 13746885 -0.10470086 -0.0078292862 0.99447298 0.0036823233
1.0525515 -0.21296825 0.054407015 13483967 -0.107599 0.00089797197 0.99419397 0.0023199217
1.1002899 -0.21206552 0.05612354 13812421 -0.098435648 -0.012112968 0.99506968 0.0035904176
1.1481678 -0.21043903 0.058534682 13877960 -0.098082773 -0.023262961 0.99490637 0.0026047553
1.0254931 -0.20452824 0.050104633 12233139 -0.1417188 -0.017730465 0.98974818 0.001316639
1.0569847 -0.2010754 0.053615481 13483455 -0.091030531 -0.031514931 0.99534935 0.00056849484
1.094112 -0.20236179 0.056866899 13680835 -0.097613335 -0.019633513 0.99503076 0.0044864463
