# .PCD v0.7 - Point Cloud Data file format
VERSION 0.7
FIELDS x y z rgb normal_x normal_y normal_z curvature
SIZE 4 4 4 4 4 4 4 4
TYPE F F F U F F F F
COUNT 1 1 1 1 1 1 1 1
WIDTH 537
HEIGHT 1
VIEWPOINT 0 0 0 1 0 0 0
POINTS 537
DATA ascii
2.4502652 -0.67125338 0.57993364 14536151 -0.98458976 0.17459421 -0.0099944705 0.066078357
2.4742892 -0.6591599 0.57967579 14602714 -0.99520707 0.096523218 -0.015690684 0.054268617
2.4761088 -0.62223762 0.57987064 14339540 -0.95348203 -0.25503618 -0.16071282 0.037288241
2.4499314 -0.59732842 0.57874292 14602714 -0.98935813 -0.14514656 -0.010148093 0.042896822
2.4594986 -0.59990042 0.57735336 14536921 -0.97198814 -0.14648449 -0.18379717 0.022047723
2.4604023 -0.5815686 0.57745004 14536919 -0.98747784 0.099365689 -0.12253197 0.03423924
2.4498479 -0.57884723 0.57844526 14800093 -0.99006206 -0.13645326 0.034025606 0.040671747
2.4497643 -0.56036597 0.57814759 15259874 -0.98265463 0.14622878 -0.11404876 0.07211563
2.4613054 -0.56323677 0.57754678 14734298 -0.9849903 0.16837978 -0.037979245 0.04144717
2.4496808 -0.54188472 0.57784986 14932192 -0.93583673 0.3123028 -0.16332968 0.060910657
2.4649193 -0.48990965 0.57793367 14339800 -0.98609841 -0.15888126 -0.048648581 0.055699147
2.4662068 -0.4712663 0.57897127 14866402 -0.99753332 -0.021665849 -0.066767417 0.049165003
2.4665065 -0.45234397 0.57961237 14800093 -0.98346138 0.018319493 -0.18018943 0.06588164
2.4670262 -0.43432379 0.57876825 14667738 -0.97719651 0.18375446 -0.10640161 0.047550648
2.4730504 -0.32492357 0.57880414 14470101 -0.9913075 -0.082382038 -0.10257976 0.03276382
2.473954 -0.30659181 0.57890087 14405335 -0.98873442 -0.13382308 -0.067049533 0.02446134
2.4748576 -0.28825998 0.57899761 14339540 -0.99567598 -0.091785699 -0.014311224 0.026036745
2.4757607 -0.26992822 0.57909429 14142161 -0.998501 0.054378934 -0.0062173754 0.031154606
2.4829035 -0.26780704 0.57984471 14470359 -0.99805468 -0.0038938036 0.062223669 0.00086425612
2.4766643 -0.25159645 0.57919103 14470101 -0.99149299 0.096273631 -0.087596171 0.041520741
2.4828186 -0.24906681 0.57954282 14470612 -0.99803966 -0.0038579993 0.062466368 0.00086396985
2.4775679 -0.23326467 0.57928777 14075601 -0.96701109 0.24148759 -0.081076264 0.073486939
2.482734 -0.23032655 0.57924098 14535894 -0.99975079 0.021512792 0.0059647337 0.013349675
2.4826493 -0.21158633 0.57893914 14338511 -0.99798536 -0.016841514 -0.061168455 0.022491273
2.4825647 -0.19284607 0.5786373 14075854 -0.99974525 0.02043459 0.0095881009 0.011856949
2.481379 -0.17618759 0.57895666 13878735 -0.98978513 -0.14220935 -0.01009546 0.024484718
2.4817884 -0.15765157 0.57885408 13944268 -0.98208946 -0.18841058 0.0013122621 0.019867877
2.4644055 -0.14096372 0.57713968 13418692 -0.95518839 -0.2900739 -0.058926094 0.042157561
2.4823108 -0.13662536 0.57773173 14141645 -0.99805623 -0.0037221052 0.06221002 0.00086435996
2.4653027 -0.12276131 0.5772357 13746635 -0.99310577 -0.11673915 0.010627314 0.031874634
2.4822261 -0.11788514 0.57742983 14009548 -0.9988274 0.025525998 0.041137535 0.013942788
2.4661999 -0.10455889 0.57733178 13746635 -0.99824494 0.057903193 -0.012423501 0.023537405
2.4821415 -0.099144906 0.57712799 13680842 -0.99920267 -0.0046040318 0.039658956 0.014786482
2.4670968 -0.086356476 0.5774278 13745606 -0.99994981 0.0010088922 -0.0099675804 0.027108068
2.4820569 -0.080404669 0.57682616 14009030 -0.99888098 -0.031741191 0.035062358 0.013822627
2.467994 -0.068154052 0.57752383 13549249 -0.99869508 0.012321766 0.049561054 0.021837473
2.4819722 -0.061664436 0.57652432 13811148 -0.99839419 0.012907556 -0.055158481 0.021320749
2.4688909 -0.049951628 0.57761991 13680581 -0.99315304 0.10211553 0.05674047 0.020941406
2.4818876 -0.042924196 0.57622242 13877709 -0.99731547 0.013189393 -0.07202749 0.020122156
2.4697881 -0.031749211 0.57771593 13614788 -0.99356425 0.099966824 0.053260665 0.020505879
2.4818029 -0.024183966 0.57592058 13483202 -0.98294407 -0.12433302 -0.13550779 0.043600243
2.4706852 -0.013546802 0.57781196 13220032 -0.99765748 0.068376198 0.0020972341 0.026847536
2.4817183 -0.0054437285 0.57561874 13811651 -0.99010462 -0.13118742 -0.049828082 0.048548423
2.4715822 0.0046556219 0.57790804 13416131 -0.98313057 0.064541332 -0.17113957 0.052769925
2.4644048 0.01292427 0.57211816 13483463 -0.99890667 -0.033284608 -0.032827515 0.044368938
2.4724793 0.022858046 0.578004 13614022 -0.96509701 0.16259238 -0.20530853 0.050404657
2.481549 0.03203674 0.57501501 13614792 -0.99224263 0.06420958 -0.10645024 0.039077703
2.4733765 0.04106047 0.57810009 13417409 -0.93924469 0.2944698 -0.17637207 0.03325497
2.4814644 0.050776973 0.57471317 13483713 -0.98268914 0.033352446 -0.18223563 0.030189134
2.4813797 0.06951721 0.57441133 13679816 -0.9815467 -0.072603837 -0.1769034 0.022191772
2.4812951 0.088257447 0.57410944 13876935 -0.98212504 0.061412979 -0.1779293 0.021880018
2.4760675 0.095667697 0.57838821 13416893 -0.98990321 -0.13527615 -0.042333335 0.035256822
2.4812102 0.10699768 0.5738076 13614020 -0.98771101 0.056487691 -0.14572594 0.021646133
2.4769647 0.11387014 0.57848424 13416384 -0.98857683 -0.0079727313 -0.15050721 0.040875342
2.4811256 0.12573791 0.57350576 13416643 -0.99359548 0.018804215 -0.11142078 0.020324787
2.4778619 0.13207251 0.57858026 13285055 -0.98733789 0.10834234 -0.11587012 0.034297522
2.481041 0.14447816 0.57320392 13285827 -0.9980762 0.030696319 -0.05386658 0.018144162
2.4787588 0.15027493 0.57867634 13219264 -0.9828186 0.17047885 -0.070742495 0.04928695
2.4809563 0.16321839 0.57290202 13285055 -0.99998921 -0.00037337423 0.004639667 0.01366231
2.4808717 0.18195863 0.57260019 13350589 -0.99950194 -0.030808117 0.006840378 0.013336394
2.4811187 0.20279056 0.57563138 13284288 -0.9917568 -0.031815235 -0.1241219 0.049345877
2.4807024 0.2194391 0.57199645 13153721 -0.99805629 -0.0032388661 0.06223508 0.00086431077
2.4823472 0.22308466 0.57906044 12889787 -0.92305994 -0.21852484 -0.31655538 0.07353054
2.4806178 0.23817934 0.57169461 13153472 -0.99805629 -0.0032388845 0.062235072 0.00086431339
2.4832442 0.24128702 0.57915652 12758965 -0.98314983 0.061295189 -0.17221917 0.058506064
2.4823372 0.25820452 0.57532269 13021117 -0.99778581 0.063015357 -0.021274671 0.01861999
2.4827435 0.27667585 0.57521975 12824246 -0.99642462 0.073863909 -0.041013744 0.018983321
2.4831495 0.29514718 0.57511687 12758455 -0.98652542 0.070217274 -0.14777409 0.031901862
2.4835558 0.31361848 0.57501394 12625845 -0.97404522 0.12997165 -0.18531941 0.032682426
2.4801946 0.33188051 0.57018536 12824245 -0.96512699 0.23623395 -0.11279857 0.019257111
2.4983406 0.35348311 0.57323074 13086136 -0.96338028 0.20307995 -0.17509156 0.017644947
2.4895239 0.36870396 0.5798288 12231856 -0.99469918 -0.066470727 -0.078455135 0.035907332
2.4982553 0.37236047 0.57292664 12758454 -0.98088926 0.14904754 -0.12506472 0.049564466
2.4904208 0.38690633 0.57992482 12363183 -0.99852008 -0.039126255 -0.037774473 0.040886674
2.4981701 0.39123785 0.5726226 12561073 -0.98428112 0.13636841 -0.11222486 0.059777416
2.4980848 0.41011521 0.57231855 12756140 -0.9932543 0.040089387 -0.10880604 0.071252458
2.5162277 0.43240342 0.57535285 12625583 -0.96351963 0.15785393 -0.21612993 0.068366334
2.4979143 0.44786996 0.57171041 12691378 -0.96705282 0.046986856 -0.25020212 0.094611526
2.4771719 0.4563024 0.57781082 12165034 -0.99735671 0.045040265 0.057017632 0.042553648
2.497829 0.46674731 0.57140636 12625072 -0.93785095 0.063397408 -0.34119847 0.0917468
2.51597 0.48944685 0.57443404 12362415 -0.93788105 0.16208021 -0.30677229 0.05121601
2.5158842 0.50846136 0.57412773 12033965 -0.93385148 0.13540283 -0.33103999 0.036726099
2.4975731 0.52337933 0.57049417 12033450 -0.95065773 0.0019958746 -0.31023523 0.040374175
2.5157123 0.54649025 0.57351524 12296620 -0.98298186 0.033035982 -0.18070804 0.042595137
2.5156264 0.56550479 0.57320893 12033448 -0.99041438 0.12389572 -0.061067861 0.023831582
2.5155406 0.58451927 0.57290268 11901860 -0.99638695 -0.079161026 -0.030768093 0.021432035
2.5154545 0.60353369 0.57259637 11901860 -0.99870157 -0.034333616 -0.037635185 0.024618549
2.5153687 0.62254822 0.57229012 11573926 -0.9810316 -0.1170188 -0.15454377 0.032518186
2.5152829 0.6415627 0.57198387 11508896 -0.99198133 -0.062123649 -0.11006258 0.042891342
2.4698985 0.66809088 0.57629311 11112344 -0.91731083 -0.37192485 -0.1421717 0.072848544
2.515111 0.67959166 0.57137132 11441311 -0.97860569 -0.11295405 -0.1719663 0.043892071
2.4707832 0.68604225 0.57638788 11243671 -0.9993518 0.01783137 -0.03127563 0.081623912
2.5150251 0.69860613 0.57106501 11047836 -0.91043264 0.1084585 -0.39918578 0.04110539
2.4896469 0.70943171 0.57914639 10980760 -0.98795325 0.14848 0.043613821 0.033416942
2.4905381 0.72751236 0.57924175 10914454 -0.99997234 0.0072537186 -0.0016460416 0.030296413
2.5148535 0.73663509 0.57045251 10981277 -0.95035595 0.24347341 -0.19376378 0.045944482
2.4914291 0.74559301 0.57933718 10848921 -0.99037933 -0.13414687 -0.033962265 0.028938605
2.5147674 0.75564957 0.5701462 11112862 -0.97792739 0.12108149 -0.1702861 0.062132277
2.4923203 0.76367366 0.57943261 10652824 -0.99952328 -0.030872408 -0.0004465431 0.042338047
2.4752066 0.77579874 0.57686144 10454935 -0.9983784 0.046141829 -0.03334019 0.041724555
2.4941025 0.79983497 0.57962334 10651031 -0.9894644 0.14464308 -0.0062243044 0.034501906
2.4949934 0.81791574 0.57971877 10323349 -0.99197537 0.085258789 -0.093358971 0.025123645
1.6659793 0.83986688 0.5721581 7094060 -0.61749262 -0.78317893 -0.073032759 0.10728278
1.6904503 0.83993614 0.5790543 7029823 -0.19310012 -0.97760254 0.083699644 0.063857667
1.997931 0.83411139 0.5770219 8608093 -0.55808479 -0.82638198 -0.075061485 0.024300966
2.4958844 0.83599627 0.5798142 10389653 -0.98931664 0.043165416 -0.13924569 0.031473882
1.8122793 0.84877706 0.57301712 8473912 0.00015711763 -0.99806172 0.062232006 0.0030857236
1.8505479 0.84951609 0.57300478 8015150 0.16966142 -0.96408796 -0.20432667 0.0080360919
1.9867002 0.84425181 0.57419926 8081228 -0.48639306 -0.87258995 -0.044817384 0.029271416
1.7672595 0.85336244 0.57434738 8277811 0.068220779 -0.99472702 0.076577634 0.0053668655
1.8806219 0.85385132 0.57675707 8737594 0.017197268 -0.99958193 0.023242079 0.0014597751
1.9112829 0.85407001 0.57031447 8540483 0.049264651 -0.99871677 -0.01174119 0.0016435399
1.942819 0.85404831 0.57804501 8475210 -0.078787766 -0.99650544 -0.027738905 0.0092904503
1.9754701 0.85422462 0.57137936 8539980 -0.32395989 -0.94530427 -0.038075697 0.023307372
2.006845 0.8569445 0.57634997 7293246 -0.085967526 -0.98444498 -0.15322433 0.010606738
2.4967756 0.85407698 0.57990956 10518929 -0.98663545 0.059258781 -0.15178564 0.034115165
1.9361888 0.86485559 0.5766139 8212792 0.036884177 -0.98763961 -0.15234064 0.00909355
1.9850394 0.86113483 0.57232809 7621700 -0.14483477 -0.96715564 -0.20888513 0.0071424413
1.5558245 0.87550348 0.57508641 7554357 0.04189289 -0.99085444 -0.12826718 0.008138095
1.6431214 0.87733668 0.57731128 7092516 -0.34720865 -0.93549353 -0.06555967 0.06798166
1.5836581 0.88003755 0.5717811 7880741 0.059355374 -0.99377596 -0.09426719 0.012851978
1.606107 0.88085747 0.57842517 7222811 0.052508138 -0.99369669 -0.099044532 0.024870407
1.6278026 0.88114148 0.57282513 6700598 -0.23243895 -0.96956605 -0.076901741 0.055007156
1.6277472 0.89341408 0.57262743 7158311 -0.062299829 -0.99568403 -0.068789981 0.033689298
2.4788077 0.89439398 0.57983464 10323859 -0.88385355 -0.23076153 -0.40688094 0.10391759
2.478723 0.91313428 0.5795328 10060177 -0.91440761 0.058809411 -0.4005 0.084254667
2.4786384 0.93187451 0.57923096 10059660 -0.95952219 0.16861342 -0.22558081 0.071991421
2.4840536 0.95531178 0.57780862 9403007 -0.98766232 -0.14774022 -0.051923886 0.082069732
2.4677746 -1.5100828 0.58045638 10390397 -0.90753752 -0.41904494 0.027875194 0.024915673
2.4359996 -1.3274956 0.58729911 11048337 -0.99329454 -0.10790189 0.041511342 0.016506588
2.4359167 -1.3091439 0.58700353 11115418 -0.99664783 -0.070292875 -0.041856095 0.041272447
2.4185636 -1.2819695 0.58336109 4466489 -0.99506372 0.012137048 -0.098493211 0.040625941
2.435751 -1.2724404 0.58641231 12231330 -0.99646282 0.031376995 -0.077957928 0.043590803
2.435668 -1.2540886 0.58611673 12165284 -0.99361581 0.10107075 0.050123096 0.020971773
2.4355853 -1.235737 0.58582115 12558761 -0.99676085 0.076159723 -0.02583782 0.019340569
2.4355023 -1.2173853 0.58552551 12625583 -0.96988028 0.23237382 -0.073039502 0.030380737
2.4354193 -1.1990336 0.58522993 12495278 -0.95256937 0.27544817 -0.12938328 0.023648394
2.4526026 -1.1887275 0.58826876 12495793 -0.96859455 0.20089509 -0.14651248 0.029702311
2.4525192 -1.1702464 0.58797109 12758965 -0.98133469 -0.040787134 -0.18793283 0.033068456
2.4351707 -1.1439785 0.58434314 12562352 -0.94528812 -0.1289015 -0.29969111 0.036756869
2.4350877 -1.1256267 0.58404756 12430514 -0.90638477 0.12867111 -0.40238112 0.048086423
2.4350049 -1.107275 0.58375198 12890551 -0.86277807 0.26015788 -0.4335112 0.033198688
2.4521854 -1.0963213 0.58678037 13284796 -0.77742225 0.40400329 -0.48207471 0.037270635
2.4707172 -1.091006 0.58003247 13154498 -0.92054695 0.080290429 -0.38229162 0.042627838
2.4521019 -1.0778401 0.5864827 13416643 -0.84173083 0.42223135 -0.33646673 0.055393208
2.4716334 -1.0724155 0.58013052 13352131 -0.94155371 -0.020584874 -0.3362335 0.036475275
2.4692807 -1.0664979 0.58950472 13220543 -0.90092576 0.17442167 -0.39737892 0.092421301
2.4725497 -1.053825 0.58022857 13483454 -0.93150061 0.082043171 -0.35436645 0.045003567
2.4691966 -1.0478872 0.58920497 13680842 -0.95904404 0.15488368 -0.23716167 0.062821165
2.4734657 -1.0352345 0.58032668 13614788 -0.92845494 0.068865001 -0.36500546 0.057278562
2.4691126 -1.0292766 0.58890522 13615817 -0.94117314 0.11385129 -0.31816834 0.052431639
2.4743819 -1.016644 0.58042479 13615303 -0.88859874 0.13315943 -0.43893155 0.060685344
2.4752982 -0.99805343 0.58052289 13549510 -0.93203294 -0.026063316 -0.36143509 0.056857422
2.4762144 -0.97946292 0.58062094 13877960 -0.92519659 -0.14798462 -0.34944513 0.036213394
2.4771307 -0.96087241 0.58071899 14075341 -0.90850472 -0.1299127 -0.39716735 0.031441137
2.4780469 -0.9422819 0.5808171 13943755 -0.92022598 -0.078970052 -0.38333791 0.034919254
2.4686081 -0.91761231 0.58710659 14273233 -0.94428754 0.27654412 -0.17845017 0.065920763
2.4798791 -0.90510082 0.58101332 14273233 -0.87890315 0.12825936 -0.45943314 0.032782573
2.4807954 -0.88651037 0.58111137 14602196 -0.8684935 0.12601852 -0.47941473 0.027613262
2.4836619 -0.86770725 0.58535677 14339797 -0.87333506 -0.21408042 -0.43755627 0.035186421
2.4855275 -0.84875435 0.58920217 14405846 -0.88203603 -0.25942776 -0.39333162 0.019370675
2.4681878 -0.82455862 0.58560777 14273749 -0.90513319 -0.084003717 -0.41674623 0.035910238
2.4849093 -0.81171107 0.58505112 14405077 -0.90337169 0.13410744 -0.40735087 0.063156895
2.4853249 -0.79304576 0.58494925 14470870 -0.95750356 -0.10396051 -0.26903358 0.068954833
2.4862926 -0.77496719 0.58169991 14536403 -0.94864577 -0.26619068 -0.17092009 0.066010267
2.4679358 -0.76872647 0.58470845 14404565 -0.93164986 -0.28379995 -0.22690567 0.042063218
2.4678516 -0.75011569 0.5844087 14733784 -0.95487911 -0.12130513 -0.27109236 0.073936284
2.4677675 -0.73150504 0.58410889 14536405 -0.95110828 0.058532018 -0.30326068 0.064085774
2.484935 -0.71757269 0.58708918 14536922 -0.92045963 -0.039056111 -0.38888147 0.052901797
2.4675994 -0.69428355 0.58350939 14470875 -0.94120049 -0.11278232 -0.31846809 0.05685015
2.4908736 -0.6820147 0.58219033 14142163 -0.98642528 0.15802348 0.044651359 0.037645467
2.4674313 -0.65706205 0.58290982 14800093 -0.99774426 0.056439806 0.036346249 0.05882832
2.4845965 -0.6426118 0.58588177 14669020 -0.99455047 0.096120514 0.040376637 0.056268893
2.4927061 -0.64483368 0.58238649 14602712 -0.97606337 -0.13042766 -0.17403726 0.050115995
2.4672632 -0.61984056 0.58231032 14536922 -0.98805565 -0.1540771 -0.0025026426 0.061200749
2.479748 -0.54839307 0.58026028 14734811 -0.97015256 0.23978396 0.036162663 0.058080677
2.4668429 -0.52678692 0.58081144 14997472 -0.94444388 0.30707929 -0.11716689 0.053549983
2.4806581 -0.5299319 0.58035767 14602712 -0.9976173 0.068521112 0.0080463439 0.066330761
2.4840038 -0.51143014 0.58376878 14667991 -0.93838567 0.29675382 -0.17711459 0.05376317
2.4991195 -0.51470006 0.58307314 14536922 -0.98763806 -0.15202057 -0.038220193 0.045513384
2.4839191 -0.49268988 0.58346695 14800093 -0.98589355 0.048224617 -0.16027603 0.039418075
2.4842973 -0.45608729 0.58074725 15193569 -0.96739674 0.24357794 0.069377773 0.047576845
2.4848487 -0.41844696 0.58160079 14602971 -0.99729854 0.018536616 -0.071076959 0.035470009
2.4870267 -0.40070385 0.58103949 14404565 -0.99190992 0.067921981 -0.10724455 0.029492561
2.483496 -0.39898869 0.5819577 14733784 -0.98792559 0.11962985 -0.098446764 0.024123382
2.4856739 -0.38124561 0.58139634 14339541 -0.9917531 0.085053138 -0.095873885 0.01878076
2.4860864 -0.36264491 0.58129418 14076369 -0.9935379 0.083375156 -0.077013217 0.01386139
2.4864993 -0.34404421 0.5811919 14339283 -0.99460065 -0.027233401 -0.10013925 0.027997693
2.4831574 -0.32402775 0.58075029 14536151 -0.99934369 -0.019127507 -0.030763738 0.02044004
2.4830728 -0.30528751 0.58044839 14536921 -0.99939132 -0.0039041422 0.034667693 0.01385173
2.4829881 -0.28654727 0.58014655 14601947 -0.99920803 0.018380808 0.03529115 0.012779104
2.5137787 -0.21725187 0.58464253 14010061 -0.99033427 0.082057357 -0.11182408 0.050664913
2.4970348 -0.19763124 0.58211094 14075341 -0.98974627 -0.054419614 -0.13206394 0.058706127
2.4652977 0.069060832 0.58979446 13745349 -0.96987814 -0.050493207 -0.23829994 0.022116754
2.4920228 0.060043849 0.58083534 13351616 -0.99083865 0.076118603 -0.11155649 0.062882274
2.4929264 0.078375645 0.58093202 13285823 -0.98911917 -0.099599831 -0.10827395 0.055637311
2.4652135 0.087671563 0.58949471 13548481 -0.96722746 0.018707676 -0.25322157 0.022621438
2.4974439 0.1700346 0.58141565 13087676 -0.96095651 0.19319813 -0.19808382 0.059558712
2.498347 0.18836634 0.58151233 13153723 -0.96309584 0.068583496 -0.26027453 0.086132787
2.4816012 0.27596632 0.58979589 13153210 -0.99995404 -0.0034508491 0.0089428499 0.012163666
2.4815166 0.29470655 0.58949399 12889274 -0.9980697 -0.0033314445 0.062015109 0.00086447992
2.481432 0.31344679 0.58919215 12822453 -0.99918294 0.040334627 0.0025574865 0.012602054
2.4813473 0.33218703 0.58889031 13086388 -0.98196232 0.16126785 -0.098705336 0.023954066
2.5055749 0.3350206 0.58228612 12560568 -0.98118109 0.096435815 -0.16728389 0.024679722
2.4812627 0.35092726 0.58858842 12757939 -0.96319503 0.20366591 -0.17543 0.01765991
2.5064781 0.35335243 0.58238292 12560562 -0.9859665 0.032830589 -0.16368352 0.026213566
2.491318 0.40510875 0.5800209 12165550 -0.99819309 -0.044214331 -0.040690631 0.031927396
2.4922152 0.42331117 0.58011693 12165551 -0.9833222 -0.17918336 0.031156793 0.038902566
2.4931121 0.4415136 0.58021295 12100009 -0.9873457 -0.11621159 0.10790438 0.03612553
2.4949062 0.47791845 0.580405 12099757 -0.99599868 0.08282689 -0.03356114 0.058898836
2.4989052 0.48593336 0.58994401 12428206 -0.89829516 0.15207203 -0.4122377 0.034732562
2.4958034 0.49612087 0.58050108 12098990 -0.99103403 0.1236149 -0.05070506 0.084473126
2.4967005 0.51432329 0.5805971 11967402 -0.99474931 0.035916813 0.095832989 0.024961827
2.4987345 0.52368808 0.58933592 12034477 -0.8932727 0.1308521 -0.4300485 0.042489722
2.4975975 0.53252572 0.58069313 11770023 -0.99342281 0.063201331 0.095481925 0.022799945
2.4984946 0.55072808 0.58078921 11835816 -0.99538326 0.071507499 0.064022198 0.02229904
2.4993916 0.56893057 0.58088523 11638690 -0.99878907 -0.045100346 0.019655734 0.027200585
2.5002887 0.58713293 0.58098125 11638431 -0.9992826 0.010871449 0.036279723 0.026559565
2.5011859 0.60533541 0.58107734 11507104 -0.99104714 0.082113266 -0.10527587 0.031075852
2.4983082 0.61807489 0.58781558 11704732 -0.89894575 -0.16740133 -0.40481281 0.062830053
2.5020828 0.62353778 0.58117336 11179422 -0.98656237 0.0026204742 -0.16336395 0.035062298
2.50298 0.64174026 0.58126938 11507102 -0.93867463 -0.31566161 -0.13873614 0.064241298
2.4981377 0.65582961 0.58720744 11441311 -0.98790729 0.015999323 -0.15421799 0.076924458
2.5038772 0.65994263 0.58136547 11046553 -0.87903386 -0.4560999 -0.13882513 0.045849718
2.4980524 0.674707 0.58690339 11572636 -0.96432984 -0.18990605 -0.18440099 0.052618034
2.497967 0.69358426 0.58659935 11442079 -0.96269816 -0.0028698563 -0.2705625 0.070071436
2.4978819 0.71246171 0.58629525 11047321 -0.94926107 0.13649866 -0.28332239 0.052812397
2.5160232 0.73694605 0.58943111 11375518 -0.9491089 0.24836975 -0.19366173 0.059881721
2.5158513 0.77497506 0.58881855 11112863 -0.8871991 -0.27071288 -0.37362051 0.078242078
2.5157654 0.79398948 0.5885123 11047582 -0.73271042 -0.6461035 -0.21374217 0.053411637
2.4974556 0.80684847 0.58477497 10850455 -0.91778427 -0.33795604 -0.20846552 0.10479663
2.4791462 0.81943309 0.58104205 10389906 -0.95482105 -0.18754031 -0.23053303 0.099600188
2.0101776 0.82423741 0.580082 9466231 -0.59714466 -0.80003184 -0.058029063 0.018448561
1.662653 0.84418672 0.58345014 6370342 -0.84641457 -0.50696391 -0.16300312 0.10129875
2.4972849 0.84460324 0.58416682 10455446 -0.96513164 0.17548491 -0.19423179 0.068666831
1.7405652 0.85291088 0.58011025 7817771 0.13360879 -0.9879697 0.077875629 0.0035087662
1.7947631 0.85361743 0.5816921 8473660 0.010254072 -0.99453241 0.10392405 0.0036582584
1.8222687 0.85346097 0.58904344 8933192 -0.026530847 -0.99815631 0.054591082 0.0056484472
1.8509501 0.85364068 0.58299249 8737596 0.005578388 -0.99947214 0.032005709 0.003966128
1.8886261 0.85460657 0.58050495 8277829 0.095345564 -0.97996777 -0.17484964 0.0068901582
1.9223267 0.85903072 0.58720922 8474689 0.010681918 -0.99993759 -0.0032799132 0.0036494255
1.9765368 0.85527241 0.58531892 7688264 -0.24648854 -0.96162468 -0.12050433 0.019554406
1.997449 0.85148096 0.58834809 7884100 -0.097427815 -0.97896332 -0.17927286 0.011148258
2.0286353 0.85243481 0.58037007 8214358 -0.084175944 -0.99291253 -0.083899572 0.019086694
1.6584976 0.86080223 0.58200252 5318674 -0.94333249 -0.31342372 -0.10903884 0.083998881
1.9559077 0.86036706 0.58039176 7754300 -0.068300098 -0.9860357 -0.15188362 0.011962686
1.5565457 0.87569523 0.58678836 7554611 0.03340055 -0.99363577 -0.10757475 0.0069137895
1.5772638 0.87611938 0.58159083 7488297 0.070311658 -0.98985916 -0.12343054 0.010446856
1.5987043 0.87641543 0.58810037 6960934 0.076650158 -0.97129124 -0.22520673 0.013696196
1.6665817 0.8777585 0.5840894 5647380 -0.77436602 -0.59343398 -0.21953008 0.086537264
2.4976666 0.87215781 0.58000493 10190991 -0.96799272 0.17699657 -0.17793934 0.041997273
2.5154219 0.87004739 0.58728719 10585489 -0.96017039 -0.038018264 -0.27681682 0.070894003
1.6285576 0.88134217 0.58507448 7488567 -0.17290355 -0.96935469 -0.17451617 0.04406419
2.4971144 0.8823579 0.58355868 10324113 -0.8792851 -0.1835932 -0.43948975 0.099810667
2.4985578 0.8902384 0.58010036 10060947 -0.95398271 0.27572188 -0.11787555 0.041774377
2.5164361 0.9147765 0.58271003 9535375 -0.99256825 0.12168937 -0.00012117624 0.07012938
2.5173333 0.93297893 0.58280599 9534857 -0.99698359 -0.075267091 -0.018937811 0.087358534
2.501231 0.94448042 0.58038652 9665929 -0.96805817 -0.22808324 -0.10412218 0.082851239
2.4967732 0.95786738 0.58234245 9863047 -0.97718382 -0.014872624 -0.21187417 0.057494875
2.4966881 0.97674477 0.5820384 9599626 -0.97874576 -0.021622397 -0.20393443 0.035427637
2.5030131 0.98064172 0.58057737 9206406 -0.99882257 0.033920858 -0.034683377 0.056764733
2.4966028 0.99562204 0.5817343 9598343 -0.96013618 0.100029 -0.26102272 0.044471148
2.5039043 0.99872231 0.58067274 9074557 -0.99039042 0.12848818 -0.051164031 0.025370926
2.4965174 1.0144994 0.58143026 9860737 -0.91679871 0.31794918 -0.24163714 0.030318242
2.5047953 1.0168031 0.58076811 8876926 -0.97804826 0.207853 0.014793664 0.020606056
2.4964323 1.0333767 0.58112621 9334136 -0.913863 0.31859308 -0.25170013 0.030401262
2.5056863 1.0348837 0.58086354 8941947 -0.96247071 0.27128068 0.0075540841 0.025737017
2.5065775 1.0529643 0.58095896 8609641 -0.94435668 0.32843834 0.017853782 0.020815203
2.4536664 -1.5002471 0.59622514 10324863 -0.86975753 -0.4931708 -0.017450944 0.021561461
2.4545827 -1.4816567 0.59632325 10258821 -0.90565032 -0.4240253 0.00046266615 0.021291018
2.438251 -1.4532375 0.59371042 10523273 -0.958516 -0.28400114 0.024301991 0.024379957
2.4391608 -1.4347762 0.59380782 10522768 -0.96753526 -0.24626927 -0.056807309 0.023730673
2.4400706 -1.4163151 0.59390521 11048335 -0.98329997 -0.16892949 -0.067706108 0.025506997
2.423713 -1.3884134 0.59128952 11048594 -0.9904502 -0.065763436 -0.12117596 0.044633973
2.4246161 -1.3700817 0.5913862 10785422 -0.96254855 0.18835816 -0.19499089 0.055159289
2.4428 -1.3609318 0.59419739 10851985 -0.93659621 0.2834644 -0.20599888 0.048446309
2.4437099 -1.3424705 0.59429485 11048861 -0.98061973 0.085364558 -0.17634602 0.065074734
2.4446197 -1.3240094 0.59439224 11114128 -0.98521096 -0.1249705 -0.11722597 0.035316914
2.42823 -1.2967544 0.59177315 11705249 -0.99683505 -0.069766879 -0.038111031 0.039847746
2.4291337 -1.2784226 0.59186983 3874853 -0.99689448 0.023309421 -0.07521987 0.039550159
2.4300373 -1.2600908 0.59196657 12166556 -0.99321342 0.084354952 -0.080071405 0.039643764
2.4309404 -1.2417591 0.59206331 12690351 -0.97195059 0.20231226 -0.11992468 0.056159023
2.431844 -1.2234273 0.59215999 12363696 -0.8782987 0.41215634 -0.24231902 0.035337009
2.4500787 -1.2132424 0.59497666 12495532 -0.92295653 0.29403606 -0.24838302 0.05513411
2.4509885 -1.1947814 0.59507406 12824497 -0.9801048 0.14672102 -0.1336697 0.060206633
2.4518983 -1.1763202 0.59517145 12758703 -0.99881905 -0.030335844 -0.0379522 0.02025098
2.4528081 -1.1578591 0.59526885 12757688 -0.99786496 0.065082654 -0.0054696947 0.029647151
2.4537179 -1.139398 0.5953663 12955821 -0.97993559 0.19930555 0.0019187033 0.031584099
2.4719906 -1.1284369 0.59818691 13153208 -0.9647696 0.24792981 -0.088036537 0.043858528
2.4729068 -1.1098464 0.59828496 13285048 -0.96845216 0.15962498 -0.19136423 0.054328647
2.4564476 -1.0840144 0.59565854 13153723 -0.96777678 0.056475595 -0.24539503 0.058584042
2.4573574 -1.0655534 0.59575593 13351868 -0.98185194 -0.0057437364 -0.18956217 0.065391548
2.4582672 -1.0470922 0.59585333 13483202 -0.989779 0.064382844 -0.12724927 0.061465476
2.459177 -1.0286311 0.59595072 13614792 -0.97756642 0.15067011 -0.14718173 0.044000033
2.4774878 -1.0168939 0.59877545 13944264 -0.98986387 0.035661515 -0.13746943 0.047053508
2.4862895 -1.0174165 0.59191889 13418690 -0.89500129 0.26938042 -0.35553744 0.045354899
2.478404 -0.99830335 0.5988735 12958137 -0.95268238 -0.086960584 -0.29126328 0.053588033
2.4862049 -0.9986763 0.59161705 13745606 -0.82781059 0.41668171 -0.37564075 0.059123747
2.4619064 -0.97324765 0.5962429 13155268 -0.90918547 -0.22321799 -0.35150459 0.038014028
2.4861202 -0.979936 0.59131515 13877962 -0.93013316 0.096317135 -0.35436597 0.086385086
2.5043097 -0.96793211 0.59451514 13812428 -0.98712927 -0.060703944 -0.14795551 0.053091977
2.4628162 -0.95478648 0.5963403 13746635 -0.90164399 -0.1271088 -0.41337818 0.019528104
2.4859507 -0.94245553 0.59071147 13877962 -0.97265774 -0.12171596 -0.19779333 0.069985457
2.463726 -0.93632537 0.59643775 13944266 -0.90362942 0.029446937 -0.42730188 0.0223502
2.4646358 -0.91786414 0.59653515 14141645 -0.90031779 0.0631174 -0.43063217 0.02257286
2.4857814 -0.90497512 0.59010774 14207957 -0.92986852 0.27910301 -0.23967925 0.061623018
2.4655459 -0.89940304 0.59663254 14272720 -0.86298496 0.1874129 -0.4691838 0.026059777
2.5039685 -0.89242274 0.59329891 14404565 -0.93369687 0.18667082 -0.30555549 0.065013126
2.4664557 -0.88094193 0.59672999 14404815 -0.88245714 0.030365203 -0.46941179 0.044810753
2.4673655 -0.86248076 0.59682739 14470610 -0.9216035 -0.18100181 -0.34334433 0.04653405
2.4508164 -0.83845997 0.59419119 14403538 -0.93742746 0.085040852 -0.33763573 0.093820825
2.45172 -0.8201282 0.59428787 14339026 -0.90422678 0.24043293 -0.3529391 0.10008546
2.4875662 -0.8123982 0.59985441 14075854 -0.88849241 0.26676953 -0.37338364 0.063003011
2.4884822 -0.79380769 0.59995246 14339026 -0.93395984 0.082763828 -0.34766239 0.084528349
2.4719145 -0.77017504 0.59731436 14404817 -0.97386211 -0.21166469 -0.082405783 0.085280269
2.4535351 -0.74583852 0.59712279 14470610 -0.98753536 -0.011718954 -0.15696062 0.070317328
2.4737341 -0.7332527 0.59750921 14339794 -0.99404508 0.09265507 0.057354324 0.063166
2.4516528 -0.72639471 0.59927303 14667989 -0.92055732 -0.01248431 -0.39040813 0.039610472
2.4746442 -0.7147916 0.5976066 14799577 -0.99510664 0.083434723 -0.052929074 0.05770741
2.475554 -0.69633043 0.59770399 14733523 -0.99512619 0.072892644 -0.066412389 0.038381513
2.4514022 -0.67095113 0.59837997 14734300 -0.9715513 0.14147121 -0.18993166 0.074434869
2.4764638 -0.67786926 0.59780145 14273749 -0.98592937 0.13874753 -0.09323258 0.050468169
2.4773736 -0.65940809 0.59789884 14339542 -0.98487318 -0.04672543 -0.16685773 0.055959407
2.4782834 -0.64094698 0.59799623 14339026 -0.96465564 -0.19232039 -0.18014529 0.039819136
2.4616578 -0.6184786 0.59535182 14601944 -0.9751156 -0.20150186 -0.092447393 0.034846768
2.4625614 -0.60014683 0.59544861 14273750 -0.9990797 -0.0348006 -0.025074484 0.042435519
2.463465 -0.581815 0.59554529 14471129 -0.96860689 0.24616957 0.034660283 0.038667485
2.450985 -0.57854497 0.59689158 14932192 -0.98097092 -0.10264166 0.16480523 0.038424052
2.4662619 -0.56359357 0.59781432 14931679 -0.99263322 0.085028298 0.086310692 0.04598539
2.4508178 -0.54158247 0.59629619 14735070 -0.97253454 0.21607332 -0.086538889 0.073984943
2.4828324 -0.54864126 0.5984832 14734298 -0.97869587 0.19298084 -0.070091739 0.062190905
2.4670815 -0.52665108 0.59761125 14405591 -0.98570287 0.10464671 -0.1320564 0.064557388
2.4846523 -0.51171893 0.59867805 14339542 -0.98435909 -0.15233482 -0.088495299 0.044035058
2.4679036 -0.50787181 0.5990873 14734300 -0.96109462 0.14757425 -0.23349324 0.046107285
2.4679821 -0.49015611 0.59602892 14536919 -0.99921811 -0.016577005 -0.035895675 0.069348402
2.4678197 -0.48926109 0.59878755 14603225 -0.99742001 0.023133591 -0.067957431 0.039546087
2.4688857 -0.47182429 0.5961256 14405333 -0.98378354 0.11510455 0.13755295 0.053739373
2.4873817 -0.45633543 0.59897029 14864857 -0.97972047 0.18109851 0.085738637 0.046105616
2.4675674 -0.43342888 0.59788823 14536922 -0.93234324 0.16715816 -0.32061559 0.051199604
2.4882915 -0.43787432 0.59906769 14996445 -0.99626988 0.075871259 -0.041108698 0.049240984
2.471596 -0.41682893 0.59641576 14470612 -0.99561435 -0.044320486 -0.082388192 0.037338756
2.4724991 -0.39849716 0.59651256 14141645 -0.98355931 0.0082341507 -0.18039799 0.036633529
2.4734027 -0.3801654 0.59660923 14207187 -0.95889848 0.095308669 -0.26726398 0.029831467
2.4743063 -0.36183357 0.59670597 14273747 -0.96272433 0.1338329 -0.23505442 0.040423479
2.4843948 -0.3424615 0.59975708 14471126 -0.99754822 0.0096783666 -0.069309674 0.026374113
2.4928408 -0.3455686 0.59955466 14142672 -0.97101873 0.023748696 -0.23782061 0.04277014
2.4843102 -0.32372126 0.59945524 14339794 -0.99954873 0.0064118151 -0.029347669 0.03033901
2.4937506 -0.32710743 0.59965211 14075600 -0.99003768 -0.053984996 -0.13004296 0.040861774
2.466979 -0.30315372 0.59578985 14536405 -0.99380404 0.034091827 -0.10578924 0.030740054
2.4770167 -0.30683821 0.59699613 14404819 -0.99539137 -0.0599248 -0.0748678 0.042854171
2.4779203 -0.28850645 0.59709287 14338511 -0.99800849 0.0071203769 0.062676974 0.017996961
2.4841409 -0.28624079 0.5988515 14470359 -0.99736494 0.035209514 -0.063431174 0.027549643
2.4788234 -0.27017468 0.59718955 13945036 -0.99321002 0.014414646 0.11543895 0.011352432
2.4840562 -0.26750055 0.59854966 14865117 -0.99590522 0.065662928 -0.062138975 0.02511514
2.479727 -0.25184286 0.59728628 14404306 -0.99911058 0.018909404 0.037689745 0.032814644
2.4839714 -0.24876033 0.59824777 14272979 -0.99327207 -0.033095203 -0.11097464 0.020262409
2.4822588 -0.23176557 0.59766448 14141388 -0.99111503 0.082856931 -0.10404726 0.046403177
2.4826679 -0.21322957 0.5975619 14141133 -0.98454511 0.066194914 -0.16213928 0.04572878
2.4830775 -0.19469357 0.59745938 13878218 -0.99679297 -0.02618123 -0.075619981 0.043842427
2.4834869 -0.17615756 0.5973568 13746891 -0.99284762 -0.10643883 -0.054077644 0.027257191
2.4842441 -0.16018397 0.59776992 14141134 -0.95731372 -0.27929521 -0.074463099 0.035211261
2.4835482 -0.15505913 0.59673852 14075343 -0.99943036 -0.031987611 0.010759008 0.011736986
2.4674466 -0.1412084 0.5951072 13878471 -0.96086639 -0.26921201 0.065273903 0.037898608
2.4834635 -0.13631888 0.59643668 13614790 -0.9999333 -0.007592998 0.0087056123 0.012163713
2.4683437 -0.12300599 0.59520328 13418440 -0.98332524 -0.087660812 0.15933323 0.017672066
2.4833789 -0.11757866 0.59613478 13877194 -0.99230057 0.012230908 -0.12324793 0.026625691
2.4692409 -0.10480356 0.59529924 13221059 -0.98456043 0.047742315 0.16840886 0.0022819603
2.4832942 -0.098838419 0.59583294 13550027 -0.99810946 0.0014155831 -0.061446484 0.022539854
2.4701378 -0.086601153 0.59539533 13548995 -0.99590039 -0.024974486 0.086941466 0.020235891
2.4832096 -0.080098182 0.59553111 13746376 -0.99972367 0.021433812 0.0096589737 0.011817368
2.471035 -0.068398729 0.59549135 13285823 -0.99953479 -0.00083605864 0.030489564 0.02499184
2.483125 -0.061357941 0.59522927 13745608 -0.99806738 -0.0035901861 0.062037449 0.00086444936
2.4719319 -0.050196305 0.59558737 13679816 -0.99050182 0.13450983 0.028517634 0.023055146
2.4830403 -0.042617701 0.59492737 13943755 -0.99806809 -0.0035577137 0.062027793 0.00086438813
2.4728291 -0.031993888 0.59568346 13745609 -0.9894926 0.086849213 0.11559284 0.011861536
2.4829557 -0.023877472 0.59462553 13615303 -0.98938894 -0.13433479 0.055351306 0.015937649
2.4737263 -0.013791479 0.59577948 13351618 -0.99924564 0.0034493669 0.038683236 0.030871818
2.4828711 -0.0051372349 0.59432369 13811399 -0.9830454 -0.1828451 0.013764836 0.030950939
2.4746232 0.0044109449 0.5958755 13481413 -0.99882704 -0.033512212 -0.034949869 0.032199576
2.4655497 0.013228645 0.59069377 13614792 -0.9920398 -0.10700274 -0.066389404 0.049365249
2.4755204 0.022613369 0.59597158 13416131 -0.97862303 0.18277115 -0.09429571 0.044581316
2.4827018 0.032343235 0.59371996 13548230 -0.97807676 -0.069886409 -0.19616757 0.036855031
2.4764175 0.040815793 0.59606761 13351102 -0.94713295 0.31189424 -0.075240441 0.033062108
2.4826171 0.051083468 0.59341812 13548481 -0.97019988 -0.025748547 -0.24093404 0.021882182
2.4950855 0.059797436 0.5989306 13285055 -0.99100727 0.1216425 -0.055746585 0.040764496
2.4959891 0.078129232 0.59902728 13285827 -0.99375397 -0.043624856 -0.10271262 0.047353238
2.4791086 0.09542302 0.59635568 13088448 -0.96557695 -0.24201339 -0.095345229 0.037102126
2.482363 0.10730417 0.59251255 13417413 -0.98010743 0.075649187 -0.18348466 0.034350228
2.4800057 0.11362547 0.59645176 13021885 -0.99400622 -0.089386538 -0.06294167 0.047850233
2.4822783 0.12604441 0.59221071 13678790 -0.9867748 0.067071304 -0.14757042 0.033655707
2.4809029 0.13182783 0.59654784 13087930 -0.98553103 0.14298247 -0.091020152 0.034531739
2.4821937 0.14478464 0.59190887 13285057 -0.98211485 0.062570386 -0.17758214 0.021922667
2.4817998 0.15003026 0.59664381 13153212 -0.98664194 0.14955281 -0.064588234 0.041222468
2.482403 0.16587877 0.59417343 13218750 -0.9934057 0.10816891 -0.038007315 0.030535165
2.4828091 0.18435013 0.59407055 13021625 -0.99915874 -0.00040696017 -0.041007668 0.044838857
2.4832153 0.20282146 0.59396762 13086907 -0.9972198 -0.032881495 -0.066868633 0.034280702
2.4818552 0.21974559 0.5907014 13087928 -0.99806809 -0.0031687696 0.06204889 0.00086435786
2.4686086 0.22101074 0.59441805 12758714 -0.99953997 0.019855736 0.02292721 0.044920929
2.4817705 0.23848583 0.59039956 12824506 -0.99806815 -0.0032724545 0.062043287 0.0008643812
2.4862852 0.24104235 0.59712404 12758200 -0.99070472 0.053065803 0.12525305 0.026684836
2.4844341 0.25823542 0.59365892 12889525 -0.99755722 0.027084539 0.06438899 0.012021703
2.4880795 0.27744722 0.59731615 12757939 -0.9960897 0.0055162632 0.088175073 0.023918575
2.4889765 0.29564965 0.59741217 12692398 -0.99531204 0.021566087 -0.094281375 0.03813557
2.4898736 0.31385201 0.59750819 12363179 -0.97656035 0.097731441 -0.19177717 0.037446406
2.4907706 0.33205444 0.59760427 12363953 -0.95721948 0.11973152 -0.26342979 0.033224281
2.4916677 0.35025686 0.59770024 12430000 -0.97920173 0.078752778 -0.18698125 0.036387093
2.4925649 0.36845928 0.59779632 12363183 -0.99487472 -0.012028141 -0.10039744 0.033287529
2.4994166 0.37266922 0.59176838 12626355 -0.96668565 0.14522548 -0.2107808 0.022850366
2.4934618 0.38666165 0.59789234 12231597 -0.99719518 -0.046122946 -0.05894481 0.028351007
2.4993315 0.39154661 0.59146434 12297390 -0.94679236 0.13867468 -0.29043704 0.033901066
2.494359 0.40486407 0.59798837 12166063 -0.99741375 -0.022139169 -0.068378903 0.029726278
2.4992461 0.41042396 0.5911603 12559279 -0.96555781 0.027710821 -0.25870889 0.067718036
2.4972086 0.42618391 0.59447032 12231342 -0.975869 -0.02714986 -0.21666242 0.034852464
2.4976144 0.44472381 0.59436631 12296364 -0.98924428 -0.012609771 -0.14572842 0.027273696
2.4801927 0.45605934 0.59565824 12296361 -0.98064631 0.014633168 0.19524036 0.031643309
2.4989903 0.46705607 0.59024811 13019832 -0.90910208 0.16844778 -0.38099709 0.079767339
2.4810836 0.47414005 0.59575367 12099241 -0.97976714 0.042345669 0.19560999 0.039197441
2.4988444 0.49587619 0.5984686 12231343 -0.98230016 0.11510491 0.1477744 0.037770491
2.5170538 0.50877231 0.59310633 12100011 -0.89686841 0.16093746 -0.41197857 0.036244065
2.4828658 0.51030135 0.5959444 11837601 -0.99814081 0.059659094 0.012481809 0.038608048
2.5006385 0.53228104 0.59866071 11771555 -0.9984147 0.054638967 0.01351519 0.032352291
2.5168819 0.54680121 0.59249383 12034216 -0.92893976 0.12188976 -0.34959093 0.051994
2.5015357 0.55048341 0.59875667 11705253 -0.9987424 0.017208589 -0.047089688 0.027426168
2.5024326 0.56868589 0.59885275 11705253 -0.99602127 -0.062539153 -0.063485757 0.02813966
2.5167961 0.56581575 0.59218752 11968421 -0.92661357 0.14902763 -0.34522173 0.046990797
2.5033298 0.58688825 0.59894884 11507106 -0.99509996 -0.024161037 -0.095876575 0.02743501
2.5167103 0.58483022 0.59188128 11967653 -0.89612633 -0.13272373 -0.42348811 0.057888649
2.4873214 0.60070467 0.59642142 11375516 -0.99464774 -0.0049879667 -0.10320362 0.029086325
2.5166242 0.60384464 0.59157497 11901349 -0.89947248 -0.096830957 -0.42611396 0.060684569
2.5051239 0.6232931 0.59914088 11376286 -0.99121523 0.019053211 -0.13087942 0.026572725
2.506021 0.64149559 0.59923691 11441309 -0.9784773 -0.12348346 -0.16533032 0.058405478
2.5164526 0.64187366 0.59096247 11376547 -0.98613489 0.0049038865 -0.16587371 0.079470441
2.4899945 0.65494668 0.59670758 11244700 -0.91735917 -0.38759249 -0.090687558 0.071862802
2.4728975 0.6678496 0.59401286 10982043 -0.93982077 -0.33873248 -0.044690147 0.090809695
2.4737823 0.68580097 0.59410751 10850716 -0.99674141 0.074669443 -0.030514583 0.077089898
2.4926677 0.70918864 0.5969938 10915997 -0.97759295 0.20410715 -0.051502153 0.033910606
2.4935589 0.72726929 0.59708917 10718104 -0.99299413 -0.053267993 -0.1054759 0.030405493
2.4944499 0.74534994 0.5971846 10849942 -0.99413681 -0.095676988 -0.050378159 0.042771116
2.4773211 0.75760621 0.59448642 10521488 -0.9901337 -0.12879135 -0.055208661 0.040471315
2.5341635 0.7617048 0.5925625 11111836 -0.96665853 -0.053195383 -0.25048271 0.050739028
2.4782057 0.77555746 0.59458113 10586772 -0.99632996 0.012091896 -0.084737554 0.038911127
2.4790905 0.79350871 0.59467584 10521492 -0.98740262 0.12915654 -0.091403954 0.035444196
2.4802992 0.81973958 0.59974688 10388370 -0.96383011 -0.052748051 -0.26124552 0.12542945
2.4980142 0.81767267 0.59756619 10258579 -0.99234128 0.013067318 -0.12283348 0.029981283
1.9988589 0.8343581 0.59207702 8543085 -0.5775879 -0.81519145 -0.043071009 0.024021748
2.4989052 0.8357532 0.59766161 10453903 -0.98943084 -0.01690384 -0.14401728 0.020417366
1.6593231 0.84850556 0.59468144 5842720 -0.9147656 -0.40386915 -0.0096840709 0.090187006
1.6675248 0.84027779 0.59723479 7620669 -0.65038323 -0.75959188 -0.0046705566 0.064771898
1.7085358 0.84909379 0.59664583 7424052 0.12345287 -0.98801881 0.092619419 0.0058413344
1.998791 0.84944159 0.59183407 8016971 -0.56399268 -0.82315141 -0.065833673 0.025932878
2.4817445 0.84736258 0.59495997 10388623 -0.98946542 -0.017702406 -0.14368293 0.020490786
1.7505283 0.85779363 0.59572268 7752257 0.07423687 -0.99319053 0.089786023 0.003317713
1.7772315 0.85817897 0.59009761 7949349 0.032395393 -0.99517161 0.092650391 0.0047711614
1.8047481 0.85836875 0.59764874 8343604 -0.031935845 -0.99707061 0.069500253 0.005287935
1.861974 0.85874861 0.59957308 8606275 0.012669676 -0.99984014 -0.012617796 0.0032265706
1.881495 0.85408342 0.59092265 8671291 0.015378574 -0.99967659 0.02025502 0.0028277421
1.913058 0.85454196 0.59911692 8802627 0.013981346 -0.99905765 0.041090462 0.0029819724
1.9456105 0.85476243 0.5924077 7818809 -0.050422415 -0.99311858 -0.10570222 0.010506926
1.9790543 0.85588574 0.59836471 7032652 -0.14068228 -0.9690997 -0.2026186 0.0073012388
2.0417969 0.85695374 0.59678036 8607063 -0.090856679 -0.99370694 -0.065510713 0.018637737
1.6592666 0.86100668 0.59448004 4923415 -0.86493826 -0.456698 -0.20810747 0.066996522
1.9385078 0.86466902 0.59031498 7819832 0.012484569 -0.98004675 -0.19837497 0.010371658
2.4826293 0.86531389 0.59505469 10060687 -0.9832232 0.12194066 -0.13565642 0.023856293
1.5708628 0.87219959 0.59129405 7619630 0.050425854 -0.99345011 -0.10253836 0.0074807517
1.5923131 0.8725515 0.59796238 7290164 0.094397202 -0.96893829 -0.2285779 0.012192542
1.6211648 0.87696385 0.59491605 7290675 -0.09868224 -0.94515359 -0.31136248 0.043436646
1.6364973 0.87322372 0.59962934 7222813 -0.38267475 -0.85672134 -0.34581575 0.07274957
1.6592101 0.8735078 0.59427869 5121044 -0.76175064 -0.61363059 -0.20783043 0.08286006
2.4800453 0.87596023 0.59884137 10324111 -0.86187911 -0.17292449 -0.47671953 0.079427809
1.6520276 0.88205636 0.59202284 7419178 -0.50698924 -0.82662725 -0.24423231 0.07987646
2.5015786 0.88999534 0.59794778 10060687 -0.9317764 0.34755796 -0.10486312 0.018657226
2.4799607 0.89470047 0.59853947 10192525 -0.91965276 -0.17055865 -0.35376355 0.096559837
2.5024695 0.90807605 0.5980432 9797003 -0.96917605 0.22238021 -0.10604189 0.06660156
2.5033607 0.92615664 0.59813857 9797516 -0.99804604 -0.047156703 -0.040993262 0.086119078
2.4861681 0.93711925 0.59543359 9600136 -0.9571963 -0.27574563 -0.087975129 0.081447601
2.4796221 0.96966141 0.59733206 9796484 -0.91559803 -0.033662353 -0.40068334 0.037469633
2.5051429 0.96231794 0.59832937 9533831 -0.98926377 -0.14258544 -0.032039717 0.089423992
2.4879375 0.97302175 0.59562302 9009282 -0.99739867 -0.0052291383 -0.071892567 0.067419976
2.4795375 0.98840171 0.59703022 9730432 -0.92372847 -0.031087399 -0.38178429 0.03200487
2.4888222 0.99097311 0.59571767 9074305 -0.98794442 0.13689572 -0.072287217 0.039060909
2.4794528 1.0071421 0.59672838 9466494 -0.89944136 0.18499599 -0.39595687 0.042707238
2.5078161 1.0165601 0.59861553 8942460 -0.95231766 0.30509222 -0.0031384081 0.02252269
2.508707 1.0346407 0.59871095 8810611 -0.94380766 0.32561463 -0.056588173 0.038569033
2.4240654 -1.4436551 0.60909468 10589064 -0.96273392 -0.2690464 0.02752037 0.030559162
2.4267757 -1.3886598 0.60938483 10917010 -0.99513972 -0.093005404 -0.032357443 0.032990657
2.4276788 -1.3703281 0.60948157 10917513 -0.98494512 0.171872 -0.018526614 0.035229798
2.4285824 -1.3519963 0.60957825 10983052 -0.96711993 0.25213969 -0.03323419 0.03441
2.4371285 -1.3271954 0.60561627 10851736 -0.98210436 -0.17372236 0.072742827 0.019531563
2.4370456 -1.3088437 0.60532069 11378591 -0.9942522 -0.08645054 0.063158609 0.029147897
2.4312928 -1.2970008 0.60986841 11903394 -0.99520868 -0.074792065 -0.062974937 0.046570797
2.4196846 -1.2816715 0.60154891 8087424 -0.99977475 -0.020218175 -0.0064576007 0.041473761
2.4345381 -1.2754047 0.60734737 8941169 -0.99849564 0.033165764 -0.043663848 0.04579936
2.4367969 -1.2537885 0.60443389 11837599 -0.98149419 0.17566939 -0.076219514 0.03359028
2.4367142 -1.2354368 0.60413831 12363433 -0.99767423 -0.0051732436 -0.067967042 0.018296462
2.4366312 -1.2170851 0.60384268 12363694 -0.97656286 0.16040799 -0.14350724 0.042899072
2.4365482 -1.1987334 0.6035471 12495793 -0.95689541 0.22038095 -0.1891654 0.037391935
2.4537396 -1.1884253 0.60671508 12562354 -0.96269977 0.14065956 -0.23113668 0.038399734
2.4536562 -1.1699442 0.60641742 12693686 -0.98316342 -0.070873357 -0.16842456 0.033398073
2.4362996 -1.1436783 0.6026603 12627895 -0.97603625 -0.13922071 -0.16724503 0.021692362
2.4362166 -1.1253265 0.60236472 12890802 -0.98902738 -0.011709086 -0.1472673 0.037713096
2.4361339 -1.1069748 0.60206914 12955833 -0.9533546 0.19363135 -0.23156428 0.042643096
2.4533224 -1.0960191 0.6052267 13219005 -0.83075321 0.47053295 -0.29740188 0.054593429
2.453239 -1.0775379 0.60492903 13350337 -0.79920149 0.53666079 -0.27068815 0.041333601
2.4704256 -1.0661936 0.60808033 13351618 -0.9203577 0.33908334 -0.19484426 0.084787413
2.4703414 -1.0475829 0.60778058 13417413 -0.97189409 0.1846936 -0.1459799 0.0857291
2.4529884 -1.0220942 0.60403597 13614792 -0.92790067 0.046148635 -0.36996043 0.052068278
2.4701734 -1.0103616 0.60718107 13352899 -0.88744414 0.15292074 -0.43480825 0.057592448
2.4700894 -0.99175078 0.60688126 13746374 -0.78805697 0.32863751 -0.52054179 0.052473061
2.4871881 -0.96088928 0.60971826 13812682 -0.8561964 -0.017523307 -0.51635325 0.060617905
2.4698372 -0.93591863 0.60598201 14272718 -0.90989095 -0.029152788 -0.41382203 0.08316946
2.469753 -0.91730791 0.60568219 14339024 -0.9163512 0.17062387 -0.36219892 0.064211242
2.4869342 -0.90466863 0.60881269 13878991 -0.91561228 0.19334595 -0.35252181 0.053115316
2.4868495 -0.88592833 0.60851085 14272979 -0.91309792 -0.0099343797 -0.40761942 0.061528813
2.4867649 -0.8671881 0.60820901 14207186 -0.90411454 -0.19211751 -0.3816644 0.023705393
2.4694169 -0.84286499 0.60448313 14470358 -0.960145 -0.14709175 -0.23766719 0.048135798
2.4693327 -0.82425421 0.60418338 14470358 -0.99667406 -0.0091892062 -0.080971055 0.057090979
2.4692488 -0.8056435 0.60388362 14404565 -0.99187177 -0.038419813 -0.1213025 0.04641512
2.4864264 -0.79222721 0.6070016 14667737 -0.98758554 -0.15708095 0.00069749728 0.042915955
2.4690807 -0.76842207 0.60328406 14601944 -0.93280196 -0.31331185 -0.17809042 0.032255903
2.4688284 -0.71258992 0.60238475 14667737 -0.92230809 0.037906036 -0.38459188 0.050780945
2.4687443 -0.69397914 0.60208499 14667738 -0.97925389 0.015021388 -0.20207989 0.060981642
2.4685762 -0.65675765 0.60148543 14734298 -0.98234707 0.13503197 -0.12946308 0.07000605
2.4857492 -0.64230531 0.60458672 14536921 -0.98771471 0.13742821 -0.074385464 0.070809253
2.4684081 -0.61953616 0.60088593 15128289 -0.98847121 -0.14975131 0.022343721 0.059062995
2.4683239 -0.60092545 0.60058612 14734301 -0.97736335 -0.17924349 0.11239512 0.053852238
2.4849873 -0.47364309 0.60187006 14865887 -0.99004388 -0.086968124 -0.11067888 0.037886199
2.4849026 -0.45490292 0.60156816 14602715 -0.97687697 -0.014822749 -0.2132877 0.072499834
2.4847333 -0.41742244 0.60096449 14208469 -0.95518667 0.2014872 -0.21684396 0.047612354
2.4846487 -0.39868221 0.60066265 14339794 -0.96709955 0.19237112 -0.1664691 0.02396033
2.4845641 -0.37994197 0.60036075 14536405 -0.98371607 0.051515028 -0.17218852 0.021966504
2.4844794 -0.36120173 0.60005891 14667737 -0.99035871 0.027135227 -0.1358432 0.025820173
2.4666946 0.013533019 0.60926938 13351620 -0.97913766 -0.19160682 -0.067648582 0.038953982
2.4666107 0.032143749 0.60896963 13745096 -0.98971599 -0.079678766 -0.1188006 0.035976432
2.4665265 0.05075448 0.60866988 13679813 -0.98981822 -0.046110254 -0.13466196 0.023394885
2.4664426 0.069365203 0.60837007 13811140 -0.9810611 -0.037358675 -0.19006188 0.025663381
2.4663584 0.087975934 0.60807031 13679815 -0.98855937 0.032945782 -0.14719048 0.034574166
2.4662743 0.10658666 0.60777056 13416643 -0.98654193 0.066793017 -0.14924389 0.032444954
