# .PCD v0.7 - Point Cloud Data file format
VERSION 0.7
FIELDS x y z rgb normal_x normal_y normal_z curvature
SIZE 4 4 4 4 4 4 4 4
TYPE F F F U F F F F
COUNT 1 1 1 1 1 1 1 1
WIDTH 539
HEIGHT 1
VIEWPOINT 0 0 0 1 0 0 0
POINTS 539
DATA ascii
2.5240543 0.41377297 0.31809568 12427442 -0.98671651 0.16118944 0.02021306 0.048022754
2.5490232 0.43880644 0.3108511 11704485 -0.97244507 0.014726434 0.23266669 0.012604059
2.5233314 0.45179483 0.31874543 12034218 -0.98765033 -0.07199803 -0.13915171 0.058283564
2.5488634 0.45753852 0.31146723 11572133 -0.98492438 -0.011900965 0.1725758 0.013148164
2.52297 0.47080573 0.31907031 12032938 -0.97751701 -0.030138412 -0.20869148 0.044593226
2.5487037 0.47627053 0.31208342 12031659 -0.99301046 -0.056841105 0.10343793 0.022078525
2.5485442 0.4950026 0.31269956 11636897 -0.99309736 -0.021566847 0.11529316 0.018771263
2.5483844 0.51373458 0.31331575 11571616 -0.99480277 -0.022577457 0.099286325 0.017741548
2.5482247 0.53246659 0.31393194 11571357 -0.99800217 0.0024105054 0.063133657 0.022391291
2.5480649 0.55119866 0.31454808 11374238 -0.99204725 0.12336832 0.024950743 0.02949143
2.5479054 0.56993073 0.31516427 11242651 -0.99287021 0.037755251 0.11306318 0.031626716
2.5477457 0.58866274 0.3157804 11176858 -0.99156237 -0.063325614 0.11311066 0.032851711
2.547586 0.60739487 0.31639659 11307674 -0.98418397 0.056725379 0.1678215 0.042459402
2.5474265 0.62612689 0.31701279 10913174 -0.98363602 0.10817171 0.14407998 0.043560687
2.5659602 0.64989692 0.31897289 10585491 -0.99612206 -0.044236068 0.076053105 0.10516997
2.547107 0.66359097 0.31824511 10257554 -0.79566884 -0.5575428 -0.23676409 0.097052418
2.5292947 0.67730606 0.31758344 10388625 -0.80813938 -0.52804673 -0.26091629 0.087957665
2.5291362 0.69590867 0.3181954 10322571 -0.99223107 -0.052972317 -0.11256753 0.073527128
2.5289776 0.71451122 0.3188073 10388112 -0.97618765 0.12740433 -0.1755732 0.018788852
2.5288188 0.73311383 0.31941921 10124940 -0.99155194 0.093933873 -0.08944986 0.024936641
2.5374892 0.79546231 0.3106958 9533312 -0.98780799 -0.031748354 0.15240559 0.081754312
2.5197353 0.80731642 0.31080356 9466494 -0.98913568 0.10014345 0.10761963 0.073214017
2.5203292 0.82526278 0.3115879 9597565 -0.98926991 0.031170344 0.14273566 0.057148587
2.539284 0.84968954 0.3130658 9401469 -0.99596167 0.029794123 -0.084691495 0.020251196
2.5215173 0.86115575 0.31315657 9268861 -0.99952328 0.025396654 -0.017555803 0.024334306
1.718479 0.87787187 0.31708965 6830624 -0.17338803 -0.98472947 -0.015637299 0.049927026
1.8206561 0.87475532 0.31002912 6370351 0.1059444 -0.99402702 -0.026192166 0.023131432
2.5221112 0.87910199 0.31394091 9467008 -0.99706095 -0.0092205973 -0.076056041 0.021438276
1.6845855 0.88547784 0.31290153 4856344 -0.89180654 -0.43183407 -0.13490936 0.044397093
1.7020359 0.88207519 0.31506783 6631464 -0.47117063 -0.88017958 -0.057291072 0.095329337
1.867005 0.88508153 0.31182829 6370854 0.077632956 -0.99654478 0.029523471 0.028968694
1.8861432 0.88142979 0.31223288 6369836 0.094693914 -0.99482477 -0.036835656 0.030245269
1.8959273 0.88813955 0.31192863 6894133 0.015960772 -0.93625194 0.35096672 0.0066687693
1.9267077 0.8881982 0.31462833 6501426 0.047565456 -0.98231041 0.18111804 0.011140779
1.950096 0.8849529 0.31800723 6502198 0.0018175244 -0.94825661 0.31749991 0.011373897
1.9624649 0.88939285 0.31677261 6501936 -0.079773717 -0.89377707 0.44136012 0.015314358
2.0533619 0.8881427 0.31455159 6634562 -0.19670609 -0.96676576 0.16331175 0.040642258
1.7522806 0.89145654 0.31301385 6633258 -0.016442368 -0.99713463 0.07383886 0.027662933
1.7867551 0.89659625 0.31607857 6503720 0.046620253 -0.95822483 0.28219104 0.011011502
1.7983842 0.89420921 0.31432232 6306088 -0.039163757 -0.93252748 0.35896903 0.012536203
1.8149853 0.89800483 0.31849411 6437171 0.051615469 -0.94921637 0.31036127 0.010806534
1.8269769 0.89513958 0.31779024 6569773 -0.087988943 -0.93592215 0.34103912 0.0097731678
1.8789033 0.89142066 0.31041405 6633271 0.033415753 -0.92556906 0.37710136 0.0066626053
1.9195801 0.89741451 0.3137435 6436908 -0.051367812 -0.92917037 0.36606517 0.011074559
1.9509016 0.89831227 0.31618252 6762801 -0.016675169 -0.90811324 0.41839257 0.015424384
1.9765713 0.89815605 0.31559685 6041647 0.071370602 -0.99658483 -0.041532014 0.016268963
2.0087121 0.89943916 0.31659338 6371131 -0.052519049 -0.99824333 0.027422372 0.022000382
2.0287988 0.89248979 0.31203023 7094082 -0.13464285 -0.96094829 0.24176396 0.037434675
2.0642571 0.89667654 0.31810245 7362915 -0.028424488 -0.99792188 -0.057827625 0.027423413
2.5227051 0.89704835 0.31472525 9138556 -0.99644387 0.064089209 -0.054700941 0.026397375
1.6722367 0.9087097 0.31862023 5776406 -0.16403146 -0.97425973 -0.1546341 0.049772147
1.6924388 0.90273744 0.31424326 4528911 -0.89870256 -0.42517763 -0.10750732 0.046838671
2.0538764 0.90629596 0.31820944 6240566 -0.0044407598 -0.99863249 -0.052091356 0.028400833
1.6676718 0.9144274 0.31130257 5975569 -0.35250437 -0.93218625 -0.082277462 0.027844068
1.6841009 0.91096282 0.31333703 4790794 -0.79308695 -0.58904219 -0.1550563 0.067408733
2.523299 0.91499484 0.31550965 9006970 -0.99670261 0.074187793 -0.03286472 0.024064275
1.6218816 0.92438328 0.31764397 6369563 -0.13865989 -0.97872645 0.15122189 0.018179178
1.6372992 0.92103785 0.31966311 5450011 -0.21129976 -0.97188699 0.10386643 0.016296124
2.545342 0.94073057 0.31415847 9006712 -0.98128849 0.1322989 -0.13989222 0.037915282
2.5244868 0.95088768 0.31707832 8744048 -0.98501986 0.066056833 -0.15928714 0.04559312
2.5250807 0.96883404 0.31786266 8612729 -0.9862861 -0.035723887 -0.16113217 0.045142401
2.5295022 0.97266668 0.31029746 9138558 -0.99068737 -0.096008316 -0.096545361 0.061199117
2.5256748 0.98678041 0.318647 8547439 -0.99458116 -0.03667888 -0.097277895 0.043685202
2.5402076 0.98260069 0.31045908 8808311 -0.99523097 -0.081351161 -0.053826064 0.062849477
2.5473084 0.99924845 0.3122898 8874874 -0.99636179 -0.057234664 -0.063145615 0.056812037
2.5262687 1.0047268 0.31943133 8350319 -0.99940383 0.013431467 -0.031806022 0.045842968
2.528774 1.0109627 0.31095189 8809593 -0.99222517 0.0033512306 -0.12441089 0.071801431
2.5398884 1.0200649 0.3116914 8480628 -0.95710838 0.048563655 -0.28563109 0.04884747
2.5252676 1.0307138 0.31117707 8611188 -0.97726399 0.045951646 -0.20698705 0.064513378
2.5219672 1.0499191 0.31168693 8282986 -0.91081774 0.3873958 -0.14260277 0.043737791
2.5462084 1.0571038 0.3132785 8479599 -0.99874181 -0.043123055 -0.025597624 0.049402412
2.5453143 -1.3435127 0.32210588 10650496 -0.81082481 -0.57993484 0.078985788 0.019121751
2.5272694 -1.3160604 0.32139081 10192010 -0.8654235 -0.50096357 -0.0088169733 0.029600784
2.527113 -1.2977169 0.32199425 10324612 -0.89551878 -0.42423946 -0.13441326 0.025669619
2.5068614 -1.2898071 0.32102576 10521228 -0.9563421 0.18081135 -0.22960208 0.039701246
2.5077896 -1.2709262 0.3213051 10783119 -0.96797818 -0.1156029 -0.22283247 0.038828474
2.5089161 -1.2524387 0.32186556 10981263 -0.96198142 -0.19094048 -0.19527809 0.041074224
2.5072803 -1.2341049 0.32222217 11310745 -0.99462777 -0.053386565 -0.088686891 0.032036006
2.5054462 -1.215378 0.32229766 11705251 -0.98449647 -0.056394387 -0.1660914 0.027520642
2.4917755 -1.2081683 0.32179904 11442077 -0.98800105 0.11405197 -0.10414457 0.092409678
2.5084503 -1.1977957 0.323663 11574691 -0.96818256 0.086754635 -0.23472582 0.054885127
2.4876001 -1.188766 0.32091388 11902628 -0.98543656 -0.052522317 -0.16172928 0.043224525
2.4872487 -1.1702882 0.32122964 12362411 -0.96756214 -0.019620772 -0.25187007 0.051962771
2.5082951 -1.1795815 0.32426214 12165034 -0.97419137 0.19050412 -0.12107577 0.07856077
2.4868972 -1.1518104 0.32154539 12427947 -0.9499982 0.096358716 -0.29701605 0.029301682
2.4913127 -1.1538911 0.32358444 12100007 -0.9829396 0.1238333 -0.13599662 0.073701501
2.5079846 -1.1431531 0.32546037 12232106 -0.99875569 0.045438416 -0.020553216 0.072029211
2.4865458 -1.1333327 0.32186118 12691380 -0.95324016 0.15045826 -0.26209852 0.033939976
2.505753 -1.1236403 0.32497352 12560563 -0.9668259 0.17130406 -0.18947989 0.056030255
2.5255494 -1.1142797 0.32802814 12560811 -0.97752541 -0.045473658 -0.20585495 0.057811432
2.5033231 -1.1037345 0.32420555 13086136 -0.81841546 0.54183513 -0.19133967 0.047545962
2.520447 -1.0923553 0.32623857 13349310 -0.88751173 0.43011081 -0.1653104 0.082456104
2.5075188 -1.0885104 0.32725781 12823480 -0.98237306 0.15653458 -0.10217718 0.068608083
2.538594 -1.0811348 0.3283771 13283517 -0.96778965 0.19121186 -0.16377188 0.083107911
2.5073636 -1.0702959 0.32785696 12823734 -0.93142021 0.35242301 -0.090854302 0.041840024
2.5197344 -1.0548818 0.32687894 13350076 -0.90722245 -0.061510786 -0.41612959 0.049622178
2.5250804 -1.0592487 0.32983834 13349308 -0.93862164 0.34349522 -0.031630639 0.046680532
2.5193779 -1.0361451 0.32719913 13416641 -0.87877369 0.10160727 -0.46629694 0.033419762
2.5190217 -1.0174084 0.32751933 13745609 -0.89200276 0.11948786 -0.43595159 0.023239739
2.5186653 -0.99867159 0.32783952 13876681 -0.95332062 0.2181789 -0.20875284 0.088290527
2.5183091 -0.97993499 0.32815972 14139592 -0.94534707 0.26808411 -0.18560684 0.050592538
2.5369356 -0.84418064 0.32050389 14008780 -0.94833809 0.036452971 -0.31516051 0.071499944
2.536778 -0.8257075 0.32111156 14403539 -0.98403758 0.1225729 -0.12901938 0.062833048
2.5366206 -0.80723435 0.32171917 14272467 -0.97254789 0.23183072 -0.020128056 0.047645688
2.5542901 -0.79398239 0.32364678 14206674 -0.92229563 0.36728486 -0.12030222 0.033793822
2.5541315 -0.77537978 0.32425869 14271952 -0.92073309 0.33386093 -0.20195927 0.039938241
2.553973 -0.75677723 0.32487065 14469332 -0.9528808 -0.094127022 -0.28837198 0.038430694
2.5538142 -0.73817468 0.32548255 14535124 -0.94001526 -0.27206743 -0.20579275 0.021354996
2.5358334 -0.71486861 0.32475746 14272467 -0.97574878 -0.17830183 -0.12697546 0.032079138
2.5356758 -0.69639546 0.32536513 14272982 -0.99556977 -0.03920893 -0.085460566 0.023628287
2.5533385 -0.68236679 0.32731825 14733018 -0.99289542 0.050284009 -0.10784342 0.021801386
2.5353608 -0.65944916 0.32658041 14798811 -0.98902822 -0.14675793 -0.016894594 0.049008206
2.5530214 -0.64516157 0.32854205 14535125 -0.9708547 -0.22863524 -0.071882613 0.042072147
2.5350459 -0.62250292 0.32779568 15193055 -0.95543247 -0.26310456 -0.13388342 0.029743962
2.5348885 -0.60402977 0.32840335 15127261 -0.97213757 -0.19520023 -0.12978992 0.032846488
2.5347309 -0.58555663 0.32901102 14469846 -0.99763727 0.02641587 -0.063420162 0.024569772
2.5345736 -0.56708342 0.32961869 14601434 -0.99288577 0.1100462 -0.045471683 0.044010758
2.5166039 -0.54507196 0.3288511 14667229 -0.96646935 0.21938823 -0.13343829 0.044181116
2.5227304 -0.36365098 0.32188708 14470359 -0.99403924 -0.016424736 -0.10777913 0.049953707
2.5223713 -0.3447772 0.32220963 14535641 -0.98885781 -0.13479313 -0.063174702 0.049330894
2.5463283 -0.34695894 0.32019794 14206678 -0.93099815 0.029230705 -0.36385176 0.067717373
2.5036297 -0.32387319 0.32075626 14404053 -0.99955404 -0.029691471 -0.0031807125 0.063007243
2.5032732 -0.30513644 0.32107642 14338773 -0.97242165 0.23173201 -0.026390433 0.038765401
2.546011 -0.30975372 0.32142174 14140883 -0.99050587 -0.039414629 -0.13169916 0.04024893
2.5458524 -0.29115117 0.32203364 13877713 -0.99547905 0.025876962 -0.09138862 0.043860923
2.5212946 -0.28815567 0.32317722 14272982 -0.9881717 0.099807292 -0.11642713 0.044491086
2.5279269 -0.27095583 0.32133263 13876941 -0.99220788 0.092588075 -0.08337222 0.040259529
2.5209358 -0.26928183 0.32349977 14207187 -0.99623096 -0.023201611 -0.083579876 0.050356437
2.5277696 -0.25248268 0.3219403 13745609 -0.9906289 0.063769571 -0.12078021 0.039588749
2.5022044 -0.24892624 0.32203701 14075601 -0.99733973 -0.025459388 -0.068302639 0.049419183
2.5018482 -0.23018949 0.32235721 14075088 -0.98900348 0.14740895 -0.011945851 0.041583098
2.5453768 -0.23534337 0.32386941 14140367 -0.97621441 0.084274359 -0.19975834 0.040492531
2.5198591 -0.2126603 0.32446736 14140885 -0.98039079 0.18858184 0.057191662 0.024009323
2.5452182 -0.21674076 0.32448131 14074322 -0.98556793 -0.068685941 -0.15471971 0.038052734
2.5195003 -0.19378649 0.32478988 14009299 -0.99159014 0.035193421 0.1245406 0.010680723
2.5450597 -0.19813816 0.32509321 13746127 -0.986049 -0.13257132 -0.10065939 0.035555042
2.5191412 -0.17491265 0.32511243 13878738 -0.99997228 0.0006567908 -0.0074223205 0.021384606
2.5449011 -0.17953555 0.32570511 13746125 -0.99461722 -0.016522903 -0.1022919 0.051773448
2.5447426 -0.16093297 0.32631701 13811920 -0.98366153 0.001320092 -0.1800229 0.05968532
2.5187824 -0.15603881 0.32543495 14271699 -0.99238735 0.031456035 -0.11907074 0.030115213
2.5268247 -0.14164381 0.3255862 13548746 -0.96669924 0.21592574 -0.13736367 0.069411896
2.5184236 -0.13716497 0.3257575 14074574 -0.98002636 -0.11379562 -0.16309154 0.032669298
2.5266674 -0.12317067 0.32619381 14074061 -0.97498453 0.19369678 -0.10902663 0.057124592
2.5180645 -0.11829113 0.32608002 14074573 -0.98743457 -0.064488903 -0.14427146 0.036773253
2.5442667 -0.1051252 0.32815278 13548230 -0.9793067 0.1971046 -0.045915931 0.056233168
2.5177057 -0.099417306 0.32640257 13877194 -0.98771727 0.057760548 -0.14518374 0.035392333
2.5173466 -0.080543466 0.3267251 13811916 -0.99315995 0.067119017 -0.095542327 0.034983039
2.5441082 -0.086522587 0.32876468 13679049 -0.97828382 0.19456451 -0.071452275 0.043489441
2.5169878 -0.061669629 0.32704765 13811148 -0.9977383 -0.02023246 0.064101174 0.011748057
2.5439496 -0.067920007 0.32937658 13613769 -0.96979773 -0.11680297 -0.21412499 0.037734598
2.516629 -0.042795796 0.32737017 13811401 -0.99284542 -0.020990564 0.11754746 0
2.5437911 -0.049317405 0.32998848 13416643 -0.9575637 -0.020345058 -0.28750288 0.043297607
2.5162699 -0.023921965 0.32769272 13482951 -0.99284649 -0.020888748 0.11755633 0
2.5159111 -0.0050481283 0.32801524 13285574 -0.9985038 -0.01412786 0.052826539 0.011301305
2.5155523 0.013825705 0.32833779 13285574 -0.99182278 -0.12760267 -0.0022681656 0.030347159
2.5151932 0.032699544 0.32866031 13417160 -0.9785006 -0.20539446 0.018698342 0.035545684
2.4965038 0.050861534 0.32716009 13350850 -0.99320227 -0.11457041 0.020567298 0.043503962
2.4961474 0.069598265 0.32748026 13350591 -0.9960646 0.058855455 -0.066266991 0.057829779
2.5141165 0.08932104 0.3296279 13350338 -0.94508803 0.21204337 -0.24868897 0.038257461
2.5137577 0.10819488 0.32995045 13218500 -0.9715476 0.083258785 -0.22172786 0.043790318
2.4940097 0.18201868 0.3294014 13021121 -0.98570299 -0.16609524 -0.028319621 0.051556263
2.537415 0.21168005 0.3204205 12626361 -0.99482387 -0.026792062 0.098019071 0.014167712
2.5372565 0.23028263 0.3210324 12559539 -0.99990052 -0.011951751 -0.0074876547 0.025198502
2.5370979 0.24888524 0.32164431 12559539 -0.9972409 0.062095162 -0.04068099 0.024117617
2.5369394 0.26748785 0.32225621 12362932 -0.98003656 0.18935089 -0.060618833 0.020255869
2.5367808 0.28609043 0.32286811 12362160 -0.98529953 0.17078508 -0.0041549951 0.022551475
2.5543258 0.30711713 0.32479888 12297136 -0.99531025 0.040340517 0.08792226 0.048479021
2.5541661 0.32584915 0.32541502 12296109 -0.99247742 -0.0065874043 0.12225106 0.044451121
2.536305 0.34189823 0.32470387 12230314 -0.99823725 -0.028075211 0.052289873 0.037760708
2.5538468 0.36331329 0.32664734 11968684 -0.99508905 0.096875519 0.020320209 0.024883529
2.5536871 0.3820453 0.32726353 12165550 -0.99567026 0.031406906 0.08748965 0.039136451
2.5535274 0.40077737 0.32787973 12098730 -0.98925442 -0.051610649 0.13679194 0.030267976
2.5533676 0.41950938 0.32849586 11967402 -0.99048883 -0.021054091 0.13597308 0.030767597
2.5419552 0.43623975 0.32015386 12230574 -0.99717933 -0.011930669 -0.074101739 0.074177325
2.5532081 0.43824145 0.32911205 12163754 -0.99071372 0.0087946709 0.13567966 0.030451838
2.5530484 0.45697352 0.32972819 11703719 -0.9973979 -0.067211062 0.026078269 0.025243953
2.5408628 0.49368382 0.32113552 11901102 -0.98898345 0.1322681 -0.066460028 0.034325283
2.5404987 0.51283181 0.32146275 12098730 -0.99976277 0.021704517 0.0018352345 0.038676616
2.5401347 0.5319798 0.32178998 11901352 -0.99958199 0.026667075 0.011169628 0.029739758
2.5397706 0.55112797 0.32211721 11704232 -0.9975661 0.069333494 0.0074033891 0.031719167
2.5394063 0.57027596 0.32244441 11572899 -0.99624252 0.074724771 -0.043785159 0.035112835
2.5390422 0.58942401 0.32277164 11376286 -0.99913114 -0.038108755 -0.016875058 0.036838025
2.5569167 0.6132617 0.32485333 11376286 -0.99932784 0.032488331 0.016980896 0.045011833
2.5383141 0.62772006 0.32342607 11505823 -0.99458909 -0.019036969 0.10212839 0.051791653
2.5561833 0.65183192 0.32551247 11308698 -0.94800174 -0.30452076 -0.092520088 0.071615569
2.5193548 0.66091514 0.32231909 10914457 -0.94900107 -0.2767162 -0.15107997 0.066039592
2.5189931 0.67992604 0.32264397 10913689 -0.96142322 -0.2061359 -0.18213594 0.064594269
2.5368576 0.70431215 0.32473496 11045526 -0.98378348 0.096300028 -0.15131564 0.030924823
2.5364935 0.7234602 0.32506219 10847644 -0.99312884 0.11700458 -0.0022625476 0.04799192
2.5361292 0.74260825 0.32538939 11110804 -0.99623609 0.0040358882 -0.086587869 0.042534389
2.5175471 0.75596976 0.32394347 10782093 -0.99462086 -0.067146853 -0.078871563 0.043407254
2.5286603 0.75171643 0.32003111 10124941 -0.99631315 -0.020603055 0.083280489 0.022489255
2.542222 0.75836831 0.32619426 9862020 -0.98587948 0.078668468 0.14782739 0.074316986
2.5071294 0.76488185 0.32544449 9797254 -0.98679256 0.066329069 0.14778647 0.070380747
2.5285017 0.77031904 0.32064301 9993355 -0.9860903 -0.11698449 0.11807032 0.028913006
2.5283432 0.78892165 0.32125491 9993354 -0.98809403 -0.10086299 0.11617613 0.04329614
2.5354011 0.78090429 0.32604384 10584722 -0.98098147 0.13237584 -0.14195776 0.049076151
2.5434184 0.79451972 0.3277742 9337729 -0.99640059 -0.0077833231 0.084411971 0.068296708
2.5269032 0.80695236 0.32481325 9729923 -0.99534649 -0.030844564 0.091290645 0.061104968
2.535037 0.80005229 0.32637104 10453906 -0.97717714 0.14747502 -0.15289229 0.042564951
2.534673 0.81920034 0.32669827 10321290 -0.98790163 -0.038555767 -0.15021284 0.049519554
2.5271211 0.8252269 0.3255114 9730433 -0.99315304 -0.066558324 -0.096005052 0.042592682
2.5343087 0.83834833 0.3270255 10322319 -0.99009919 -0.12991737 -0.053150982 0.036848985
2.5273387 0.84350133 0.32620955 9336191 -0.97822899 -0.067445539 -0.19626293 0.050734468
2.5100672 0.85702044 0.32238227 9598848 -0.98308486 0.08860939 -0.16028923 0.066369802
2.5339446 0.85749638 0.32735273 9796488 -0.96268773 -0.25169849 0.099399343 0.032611106
1.6944355 0.87694198 0.32652262 6566176 -0.47496682 -0.87998956 -0.0049942881 0.098138526
2.5099099 0.87549365 0.32298994 9205119 -0.97981369 0.085865416 -0.18053345 0.066486791
2.5335805 0.87664443 0.32767993 9534084 -0.98074907 -0.18235633 0.069838203 0.043005571
1.686088 0.88529015 0.32555792 4987671 -0.83649909 -0.51367128 -0.19081697 0.068071231
1.7289728 0.88991934 0.32314172 6108467 -0.13912158 -0.99012303 -0.01736523 0.0377324
2.0430467 0.88241518 0.32849425 7424856 -0.27062765 -0.96264648 -0.0085134767 0.024307003
2.5150166 0.88904631 0.32621762 9862277 -0.99552208 -0.064743452 0.068877734 0.049850319
1.6858457 0.89803261 0.32577568 4332561 -0.86525935 -0.47104177 -0.17159848 0.045377955
1.7121789 0.8935045 0.32173681 4725274 -0.47101828 -0.88145024 -0.03445724 0.06582059
1.7634996 0.89549315 0.32646593 6174767 0.11315785 -0.98531061 0.12789966 0.0058769616
1.7815037 0.89799684 0.32554644 7027501 0.092997037 -0.98038977 0.1737452 0.012723754
1.7999883 0.89400882 0.32783362 6896679 0.01064433 -0.96602273 0.25823805 0.010664539
1.846469 0.89104038 0.32006258 7027766 -0.022122022 -0.94916314 0.31400624 0.0080161337
1.8771012 0.89219379 0.32378086 7093294 0.027770575 -0.95047849 0.30954725 0.0069526769
1.9188781 0.89834845 0.32894075 7158586 -0.030669786 -0.95648664 0.29016003 0.0061625144
2.006659 0.8960315 0.32251507 6437169 -0.085739873 -0.9704237 0.22566915 0.024476569
2.0306084 0.89226371 0.32727388 7554375 -0.23887172 -0.97105104 -0.00051479228 0.025698535
2.0407286 0.89635414 0.32302532 7555903 -0.098180361 -0.95688826 0.27335975 0.016819425
2.0647836 0.89216632 0.32473484 6830401 -0.12520076 -0.95760643 0.25945094 0.02615929
1.696324 0.90986431 0.32084733 3741204 -0.47168443 -0.87455928 -0.1125164 0.062159467
1.7037296 0.90145355 0.32123694 4200211 -0.53338778 -0.84053403 -0.094868794 0.062547207
1.8525922 0.90377647 0.32184282 6569010 0.020424582 -0.94273549 0.33291546 0.011179832
1.8818715 0.9048171 0.32433397 6897473 0.0039828834 -0.96508271 0.26191527 0.011607892
1.9017799 0.90079385 0.32586876 6897205 0.031579062 -0.9672972 0.25167233 0.010369929
1.9331491 0.90206528 0.32854307 6831664 -0.044036821 -0.96199805 0.26948214 0.012197641
2.5146551 0.90805721 0.3265425 9598597 -0.98677498 0.16020779 0.024671653 0.048450887
2.5273919 0.90053719 0.32492638 9073533 -0.91513121 0.28952697 -0.2805514 0.064343095
1.652721 0.91746402 0.32167828 5516835 -0.23413035 -0.97213429 -0.011749119 0.020863531
1.6772605 0.91887957 0.32502457 5776406 -0.50419188 -0.84345877 -0.18538585 0.064997897
1.6856034 0.91077513 0.32599342 4593170 -0.82251656 -0.53685445 -0.18776019 0.059365019
2.5272334 0.9191398 0.32553828 9203838 -0.94185334 0.27196202 -0.19735497 0.046404175
1.6233284 0.9242025 0.32983136 6828568 -0.12304828 -0.99040127 0.062964201 0.020050133
2.5324881 0.93408847 0.32866159 9663620 -0.99481356 0.10133455 -0.0087944055 0.053519126
2.5447118 0.94457167 0.32748759 8810361 -0.996279 0.072208814 -0.047053754 0.026669314
2.532124 0.95323652 0.32898882 9532804 -0.99245644 -0.018563997 -0.12118409 0.059619952
2.5445523 0.96330363 0.32810378 8874874 -0.99274725 -0.11544868 -0.033533782 0.047969047
2.5267575 0.97494751 0.32737404 8874873 -0.96212643 -0.2713986 -0.025603535 0.049984254
2.53176 0.97238457 0.32931605 9204351 -0.96709299 -0.12114068 -0.22373204 0.049094014
2.5265989 0.99355018 0.32798594 8875121 -0.99417257 -0.10068685 -0.038510099 0.065252475
2.5313959 0.99153256 0.32964325 9334908 -0.94714069 -0.11487979 -0.29954493 0.035516467
2.5264404 1.0121527 0.32859784 8677752 -0.99985296 -0.01673056 0.0037655833 0.04397098
2.5310318 1.0106807 0.32997048 9006972 -0.97403991 -0.066076897 -0.21651831 0.052383047
2.5268626 1.0226732 0.32021567 8285292 -0.9771409 0.17293414 -0.12365072 0.037028711
2.5262818 1.0307555 0.32920974 8480373 -0.99421924 0.10539187 0.020510688 0.035170954
2.5267899 1.0449889 0.32541084 8218225 -0.97781819 0.18059468 -0.10609942 0.058430925
2.5464625 1.0665982 0.32254574 8349040 -0.92642033 -0.013351453 -0.3762542 0.099883579
2.5286443 1.0765125 0.32256868 8217957 -0.94064844 -0.0058074147 -0.33933288 0.1038156
2.4922383 -1.3183827 0.33705643 10846078 -0.87767196 0.33771953 -0.34005514 0.044508535
2.5313675 -1.3166137 0.33927315 10061188 -0.83779371 -0.5453639 0.026077181 0.020204952
2.4743645 -1.2911212 0.33555508 10718089 -0.91963029 0.23128679 -0.31746909 0.059137497
2.4915354 -1.2814273 0.33768797 10651797 -0.97630763 0.10695134 -0.18810856 0.054867946
2.5132959 -1.2894163 0.33842343 10455435 -0.9101724 -0.36246324 -0.20051584 0.03719392
2.4937325 -1.2629702 0.33782738 10849167 -0.98369163 -0.021176152 -0.17861241 0.052748613
2.4934797 -1.2446852 0.33828282 11308692 -0.99190462 -0.013144897 -0.12630279 0.036143806
2.4932268 -1.2264001 0.33873826 11441305 -0.99432695 -0.043248359 -0.097177587 0.03568935
2.4929738 -1.208115 0.3391937 11573154 -0.9890393 -0.07057672 -0.1296923 0.047888257
2.4897788 -1.1890383 0.33926681 12165036 -0.96520185 -0.13518733 -0.22385214 0.025961755
2.4894273 -1.1705605 0.33958256 12427945 -0.96484864 -0.030229999 -0.26106197 0.024738533
2.4890759 -1.1520827 0.33989832 12625074 -0.96831232 0.12847857 -0.21416004 0.02897747
2.524924 -1.0409049 0.33044171 13415869 -0.99155235 0.10749946 0.07258065 0.037751466
2.5247676 -1.0225613 0.33104515 13548227 -0.99994242 0.010497824 0.0022405982 0.037203416
2.5246112 -1.0042176 0.33164853 13614023 -0.99652755 0.045624949 -0.069650695 0.034509584
2.5244548 -0.985874 0.33225191 13679556 -0.99610299 0.07473515 -0.046835799 0.031997181
2.5242984 -0.96753025 0.33285528 13877194 -0.99895805 0.042245612 -0.017268732 0.027793726
2.5364406 -0.96789169 0.33031228 14008778 -0.98951274 0.1313826 -0.060026377 0.038900055
2.5241423 -0.94918656 0.33345872 13942987 -0.97768492 0.090735607 -0.1894712 0.043735009
2.5360816 -0.94901782 0.33063483 14140366 -0.9859221 0.10182783 -0.13262276 0.0274143
2.5239859 -0.93084288 0.3340621 13745608 -0.97325498 0.19665468 -0.11875077 0.037235972
2.5357227 -0.93014401 0.33095735 14008780 -0.9907729 -0.037946615 -0.13011199 0.025078991
2.5353639 -0.9112702 0.3312799 14009550 -0.99707091 -0.057775632 -0.050116733 0.030570626
2.5416927 -0.91863048 0.33608186 14008780 -0.98046249 0.041510925 -0.1922763 0.050760061
2.5415351 -0.90015727 0.33668953 13877194 -0.99261236 -0.020959137 -0.11950512 0.042877547
2.5350049 -0.89239633 0.33160242 14140364 -0.99977314 -0.018518936 0.010523983 0.041102968
2.5235167 -0.87581182 0.33587229 13877962 -0.98654044 -0.01211377 -0.16306879 0.048654236
2.5161715 -0.86751455 0.33008087 14403536 -0.99506694 0.075689964 0.064131543 0.031010097
2.5233603 -0.85746807 0.33647567 14074571 -0.99318314 0.090415366 -0.073568255 0.056034978
2.5342872 -0.85464871 0.3322475 14469332 -0.99360234 0.060567215 0.095321022 0.023244493
2.5410628 -0.84473783 0.33851248 14206929 -0.98013717 0.18699424 0.066063605 0.045304943
2.5339282 -0.83577484 0.33257005 14337745 -0.99194413 0.029461006 0.1232027 0.011557116
2.5409052 -0.82626468 0.33912015 14336979 -0.96922565 0.15395641 0.19209144 0.027342122
2.5335693 -0.81690103 0.33289257 14600664 -0.9929207 -0.021328878 0.11684842 0
2.5407479 -0.80779153 0.33972776 14338262 -0.97835147 0.15902393 0.13243787 0.026371166
2.5332105 -0.79802716 0.33321512 14666457 -0.99292523 -0.020921743 0.11688387 0
2.5328515 -0.77915335 0.33353764 14535639 -0.99789619 -0.063858479 0.011193805 0.017307689
2.5324926 -0.76027954 0.33386019 14272467 -0.99825931 -0.040616214 0.042763501 0.033204865
2.5321338 -0.74140567 0.33418271 14601687 -0.98538333 -0.025972158 0.16835998 0.033955116
2.5317748 -0.72253186 0.33450523 14667225 -0.97969157 -0.025722032 0.19885376 0.021037206
2.5314159 -0.70365798 0.33482778 14667225 -0.99134588 -0.019374764 0.12983866 0.035462473
2.5310571 -0.68478417 0.3351503 14864604 -0.99509919 -0.098846562 -0.0026572871 0.035864513
2.5306981 -0.6659103 0.33547285 14865117 -0.99828553 0.0038903297 -0.058403231 0.041027877
2.5303392 -0.64703649 0.33579537 14601945 -0.99568105 0.011067891 -0.092177838 0.027382001
2.5299802 -0.62816268 0.33611792 14865116 -0.9958812 -0.048733138 -0.076457843 0.041310508
2.5296214 -0.60928887 0.33644044 15062238 -0.97456551 -0.2240997 0.0012354329 0.042288058
2.5108268 -0.58646357 0.33488375 14733531 -0.94206685 -0.32757643 0.072137035 0.028768212
2.5104706 -0.56772673 0.33520392 14667480 -0.9751268 -0.21954213 -0.030479502 0.033423603
2.5101144 -0.54899001 0.33552411 14995422 -0.99328065 -0.11215462 -0.028548397 0.020328725
2.509758 -0.53025335 0.33584431 14929883 -0.99546665 -0.047365561 -0.082478307 0.025318567
2.5342586 -0.53013712 0.33083397 14666457 -0.93775129 0.3125096 -0.15152675 0.040217776
2.5094018 -0.51151657 0.3361645 14733533 -0.99264425 0.10882504 -0.05305237 0.043872811
2.5519114 -0.51494342 0.33282542 14535639 -0.9699232 0.061383042 -0.23554452 0.063344158
2.5090454 -0.49277985 0.3364847 14865119 -0.97602201 0.2176625 -0.0020263046 0.041247003
2.5517528 -0.49634081 0.33343738 14601432 -0.95145679 -0.23578027 -0.19783236 0.038942982
2.5271091 -0.47717202 0.33869821 14996703 -0.99168581 0.056706868 0.11551432 0.039914783
2.5337863 -0.47471768 0.33265692 14601434 -0.96263701 -0.24721195 -0.11052686 0.046405863
2.5267501 -0.45829821 0.33902073 14930397 -0.99542326 -0.06326028 0.07162948 0.040241905
2.5336287 -0.4562445 0.33326459 14535641 -0.99776727 -0.066784851 0.00049059093 0.047570571
2.5079765 -0.43656963 0.33744526 14864606 -0.99670774 -0.033785302 0.073704377 0.026593789
2.5334713 -0.43777135 0.33387226 14470107 -0.99957323 -0.024005329 -0.016649932 0.032739107
2.5076203 -0.41783291 0.33776546 14602715 -0.9978497 0.0057901391 0.065287866 0.013203269
2.5333138 -0.41929826 0.33447987 14404566 -0.9994939 0.031450089 0.0047902172 0.047943596
2.5072639 -0.39909616 0.33808565 14601687 -0.99138844 0.12949756 -0.019477921 0.029109173
2.5153532 -0.39832228 0.33367825 14535641 -0.99968302 0.016728066 -0.018816978 0.065491848
2.5069077 -0.38035944 0.33840585 14667227 -0.97881067 0.16022158 -0.12750971 0.026678348
2.5151968 -0.3799786 0.33428162 14601434 -0.99171555 0.071847372 -0.10648151 0.077050433
2.5328414 -0.36387879 0.33630282 14272722 -0.97365302 0.088223517 -0.21027702 0.07001517
2.5326838 -0.34540564 0.33691049 14337492 -0.97465932 0.016898692 -0.22305535 0.060876071
2.5058389 -0.32414922 0.33936644 14272469 -0.99953407 -0.030519249 0.00056394935 0.053628597
2.5325265 -0.32693249 0.33751816 14205395 -0.96268964 0.058579221 -0.26419166 0.040104132
2.5054824 -0.30541247 0.3396866 14206676 -0.99175471 0.11307061 -0.060312826 0.043519527
2.5323689 -0.30845934 0.33812577 14139602 -0.97108573 0.12359802 -0.20424524 0.058108732
2.5322115 -0.28998616 0.33873343 14140885 -0.99573427 0.054678842 -0.074320912 0.052218035
2.5320539 -0.27151304 0.3393411 14207189 -0.98877478 0.048081663 -0.14146644 0.044833783
2.5436325 -0.030714804 0.33060038 13284291 -0.97482324 0.097761102 -0.20040561 0.065620556
2.5612252 -0.011892646 0.33258492 13285058 -0.97658449 -0.17551614 -0.12440555 0.075140037
2.5433154 0.0064903935 0.33182418 13153220 -0.94837135 -0.31103188 -0.062056899 0.062778279
2.5431569 0.025092991 0.33243614 13086916 -0.89207393 -0.41369274 -0.18183067 0.05008832
2.5252502 0.043087672 0.33166271 13086655 -0.92767316 -0.1687319 -0.33309478 0.02697547
2.5250926 0.061560828 0.33227038 13152705 -0.94065261 -0.11288726 -0.32004562 0.028046401
2.5249352 0.080033965 0.33287799 12955326 -0.93931627 0.077459425 -0.33419308 0.02988638
2.5247777 0.098507114 0.33348566 13086401 -0.93661839 0.25711477 -0.23798768 0.038339403
2.5423639 0.11810597 0.33549565 12955839 -0.98664325 0.15452988 -0.051533103 0.047236796
2.5133989 0.12706871 0.33027297 13350084 -0.96716058 -0.017423632 -0.25356826 0.028438386
2.5422053 0.13670857 0.33610755 13086912 -0.99981284 -0.001865956 0.019255638 0.037182685
2.5130398 0.14594255 0.33059552 13021372 -0.97897965 -0.086034685 -0.18492422 0.046005122
2.5420468 0.15531118 0.33671951 12823229 -0.99897081 -0.04094952 0.019507512 0.03021419
2.512681 0.16481638 0.33091804 12823994 -0.99146986 -0.032030229 -0.12633935 0.044436075
2.5418882 0.17391376 0.33733141 12757438 -0.99787331 0.06346003 -0.014891297 0.020089433
2.5417297 0.19251636 0.33794332 12625852 -0.99362493 0.078677036 0.080743477 0.0188774
2.5119631 0.20256405 0.33156312 12889024 -0.95923775 -0.21856624 -0.17914158 0.065166228
2.4932971 0.21949215 0.3300418 12822713 -0.95472646 0.026439402 -0.29630801 0.076606534
2.5415711 0.21111897 0.33855522 12626104 -0.98891717 -0.028803149 0.14564754 0.018972114
2.5414126 0.22972155 0.33916712 12559541 -0.98739499 -0.061456222 0.14585699 0.017636685
2.4929407 0.2382289 0.33036199 12757690 -0.93859112 0.113121 -0.32596073 0.066248193
2.541254 0.24832416 0.33977902 12428725 -0.99590385 -0.03075528 0.085027732 0.023533322
2.5108864 0.25918552 0.33253074 12822715 -0.90169215 0.3766382 -0.2123559 0.052171301
2.5288265 0.28041637 0.33470398 12756918 -0.97643805 0.20488016 -0.067771539 0.052939188
2.528465 0.2994273 0.33502889 12626104 -0.98227257 0.16954085 -0.079978682 0.042910937
2.5281036 0.31843826 0.33535376 12428725 -0.98657078 -0.052648854 -0.15461649 0.052737851
2.5277419 0.33744916 0.33567864 12559282 -0.94163626 -0.099316873 -0.32164788 0.044820171
2.5273805 0.35646006 0.33600351 12428976 -0.94215906 -0.062633611 -0.32926187 0.044373199
2.527019 0.37547103 0.33632839 12231857 -0.97407246 0.056687132 -0.21901931 0.071208246
2.5266576 0.39448193 0.33665326 12427953 -0.94843262 0.31669715 -0.013362363 0.048363384
2.5445771 0.41680962 0.33884543 12296622 -0.98585874 0.11787359 0.11911507 0.058000412
2.5442131 0.43595767 0.33917263 12230574 -0.98874533 -0.14845349 0.018558539 0.061401062
2.525573 0.45151475 0.33762789 12100011 -0.9957329 -0.080720186 -0.044724412 0.059873618
2.5252116 0.47052565 0.33795276 12098988 -0.99601543 -0.056648932 -0.068877898 0.054824956
2.5528886 0.47570553 0.33034438 11441830 -0.99433857 -0.10311704 0.025645973 0.023052694
2.5527291 0.49443761 0.33096051 11179422 -0.99515849 -0.097399101 -0.0131547 0.023977853
2.5244884 0.5085476 0.33860251 11835816 -0.99011856 0.13711545 0.029404739 0.046209194
2.5525694 0.51316959 0.3315767 11441060 -0.99675143 -0.061437365 -0.052077491 0.02404798
2.5524096 0.5319016 0.3321929 11440549 -0.99814081 0.043395586 -0.042800073 0.022030098
2.5237653 0.54656941 0.33925229 11703972 -0.98933607 0.10546784 0.10045266 0.028088382
2.5522499 0.55063367 0.33280903 11112095 -0.99154824 0.10782453 -0.072153054 0.024654012
2.5520904 0.56936574 0.33342522 11046551 -0.9890911 0.10550521 -0.1027981 0.024832482
2.5519307 0.58809775 0.33404136 11111582 -0.99716431 -0.00072367681 -0.07525181 0.029396158
2.5517709 0.60682988 0.33465755 11176601 -0.99768394 0.068010665 -0.0011754334 0.042967234
2.5516114 0.62556189 0.33527374 10979733 -0.99895269 0.041242946 -0.01981619 0.053735189
2.5701756 0.64932781 0.33736742 10782870 -0.98776686 -0.079420649 -0.13419741 0.07130935
2.5512919 0.66302598 0.33650607 10717075 -0.77240032 -0.55496055 -0.30889586 0.065684453
2.515769 0.67173189 0.33431435 10321549 -0.92734438 -0.37420046 -0.0025391728 0.066205323
2.5156116 0.69020498 0.33492196 10650257 -0.98284465 -0.15496598 -0.10000955 0.064762011
2.5331337 0.7139501 0.33694208 10584722 -0.98869532 0.14391513 -0.042072628 0.016560074
2.532975 0.73255271 0.33755398 10322317 -0.98336083 0.16936509 -0.065703794 0.019501612
2.5328164 0.75115532 0.33816588 10190733 -0.99661428 0.073326476 -0.037192274 0.024500038
2.5326579 0.76975793 0.33877778 9928074 -0.99819434 -0.059112787 -0.010667042 0.034911469
2.5324993 0.78836054 0.33938968 9994381 -0.9895246 -0.14258951 0.022568794 0.033683904
2.5146668 0.80104387 0.33856791 10058377 -0.97731 -0.20009676 -0.069472909 0.040778201
2.5145092 0.81951702 0.33917552 9927561 -0.96206748 -0.25298661 -0.10209781 0.039205141
2.5143518 0.83799016 0.33978319 9862028 -0.99427897 -0.10355842 0.026172297 0.046268117
2.5274038 0.86021984 0.33011273 9073280 -0.99644649 0.026282115 -0.080023117 0.01865619
1.6959451 0.87675339 0.33923954 6173472 -0.40719143 -0.91252244 -0.03870438 0.072211482
2.5279977 0.87816608 0.33089706 9335422 -0.99633348 0.0051611885 -0.085398644 0.01809698
1.6875905 0.88510245 0.33821434 5185037 -0.81275445 -0.56722403 -0.13299298 0.057166949
1.7291307 0.8825556 0.33132482 6632486 -0.058482777 -0.99795693 -0.025726888 0.045191601
1.7318053 0.88953692 0.33550128 6303521 -0.080364816 -0.99663705 0.016004106 0.029583514
1.6792381 0.89332962 0.33718702 4399116 -0.90371686 -0.37774307 -0.20150936 0.027853515
1.6908538 0.89244097 0.33159509 4200464 -0.43729028 -0.88192087 -0.17604789 0.052948724
1.7149843 0.89312577 0.33397758 4921875 -0.43137845 -0.89751184 -0.091570735 0.057519801
1.7580307 0.89068019 0.33810407 6436644 0.12086145 -0.99184191 0.040523171 0.0073639178
1.858245 0.89594793 0.3353253 7487795 0.024240455 -0.9628126 0.26908064 0.010877911
1.9515543 0.89948136 0.33290523 6830653 -0.1024126 -0.95815575 0.26730001 0.0091616632
1.974113 0.89531702 0.33554634 6370099 -0.034957483 -0.97892493 0.20120656 0.019209458
2.008832 0.89649785 0.33975822 6896703 -0.21588904 -0.97531939 -0.046304125 0.021956656
2.5285916 0.89611244 0.3316814 9139326 -0.9941206 0.057213828 -0.091928393 0.021339256
1.678997 0.90601116 0.33740374 4528650 -0.69554698 -0.68404573 -0.21976331 0.075308405
1.6907482 0.90482241 0.33200237 4069898 -0.34525678 -0.926103 -0.15208897 0.051068153
1.8084612 0.90601915 0.33090484 6897198 0.0804037 -0.96677017 0.24267398 0.01043723
1.8377364 0.903705 0.33321342 7225139 -0.015847642 -0.96522981 0.26092172 0.012260907
1.8556306 0.90336627 0.33510056 7355957 0.0029545058 -0.96914762 0.2464633 0.010838135
1.8953899 0.90962684 0.33892325 7290677 -0.0088354386 -0.98448789 0.17522988 0.010542755
1.997983 0.90422249 0.33405429 6635829 -0.085147247 -0.96225429 0.2584891 0.028273903
2.0210295 0.90022975 0.33585343 6699828 -0.15536523 -0.98491025 0.076246977 0.015519603
2.0555398 0.901151 0.33877939 7555903 -0.12792704 -0.98506355 0.11525864 0.025150279
1.6541948 0.9172799 0.33409262 5515555 -0.31473154 -0.94917357 0.003698135 0.022644414
1.6706481 0.91405553 0.3363733 5316883 -0.53532201 -0.83359253 -0.13621239 0.055900093
1.6822878 0.9124763 0.3314333 5317649 -0.28141567 -0.93282861 -0.22502449 0.043411698
1.9874407 0.91388047 0.33349454 7027243 -0.064968526 -0.94817561 0.31103399 0.017215073
2.5291855 0.91405892 0.3324658 9139326 -0.99335921 0.064215064 -0.095467418 0.018600868
1.646865 0.92561448 0.33321315 5778714 -0.23518066 -0.97146726 0.030683547 0.018408222
2.5297794 0.93200529 0.33325014 9269629 -0.98691344 0.078082554 -0.14108562 0.034002464
2.5303733 0.94995177 0.33403447 9137527 -0.96586865 0.03143917 -0.25711739 0.034389958
2.5494003 0.97527701 0.33567414 9072253 -0.99288189 -0.035392538 -0.11372323 0.041079909
2.5315614 0.98584449 0.33560315 9006711 -0.99917388 0.0048810043 -0.040345076 0.032017987
2.5321553 1.0037909 0.33638749 8743798 -0.99915367 0.012202723 -0.039281845 0.028972473
2.5317082 1.0257831 0.33373475 8744055 -0.97531122 0.077922463 -0.20663062 0.051355347
2.5333431 1.0396837 0.33795616 8481143 -0.95515287 0.065568916 -0.28876242 0.037240397
2.5303035 1.0489768 0.33062494 8743545 -0.98822373 0.13252857 -0.07648591 0.04980563
2.533937 1.0576301 0.3387405 8283763 -0.92976123 0.025039537 -0.36731064 0.094136998
2.5299394 1.0681248 0.33095214 8150632 -0.99732572 0.07305 0.0022713097 0.046705104
2.5345309 1.0755765 0.33952484 8284520 -0.94624078 -0.021146193 -0.32277128 0.092615299
2.5622609 1.0838866 0.33324844 8215912 -0.90506381 0.42252243 -0.048314691 0.031186804
2.5494413 -1.3440698 0.34011447 9269346 -0.7640596 -0.63498187 0.11406603 0.019040147
2.4956634 -1.1906216 0.3400315 11967645 -0.97772348 0.091017783 -0.18913639 0.083350882
2.5123644 -1.1801308 0.34201825 12099493 -0.97151136 0.18007436 -0.15407446 0.082901306
2.5122092 -1.1619166 0.34261739 12296107 -0.97170675 0.12709968 -0.19907735 0.075809143
2.4887245 -1.133605 0.3402141 12625583 -0.97458857 0.16048968 -0.15626998 0.028235769
2.4952009 -1.1363444 0.3418169 12494251 -0.97141242 0.036298819 -0.23460698 0.076244526
2.5118988 -1.1254882 0.34381562 12495019 -0.97193402 -0.12803657 -0.19735993 0.066121385
2.4883735 -1.1151272 0.34052986 12757939 -0.92624646 0.33837664 -0.16603859 0.046093114
2.5055172 -1.1040087 0.3426871 13086134 -0.83459109 0.52154076 -0.17734984 0.047742497
2.5117433 -1.1072739 0.34441477 12824237 -0.98115182 0.076524936 -0.17744051 0.058682431
2.5226564 -1.0926313 0.34484869 13151929 -0.89167577 0.39688221 -0.21771298 0.091746725
2.4947381 -1.0820673 0.3436023 12757941 -0.92196912 0.31700251 -0.22244647 0.059352074
2.5114329 -1.0708452 0.34561306 12955829 -0.88580501 0.42734873 -0.18089399 0.05242065
2.5223 -1.0738946 0.34516889 13218492 -0.97009939 0.043311346 -0.2388123 0.079755001
2.5291786 -1.0598019 0.34772068 13153462 -0.90137297 0.40408325 -0.15570343 0.048375089
2.5044558 -1.0481869 0.34364101 13416382 -0.9460693 -0.16471477 -0.27896595 0.046657883
2.5290222 -1.0414581 0.34832406 13350841 -0.97546941 0.1485863 -0.1624241 0.058222566
2.504102 -1.0295796 0.343959 13613763 -0.93733096 0.1384598 -0.31974933 0.090000935
2.5288658 -1.0231146 0.3489275 13614272 -0.99563295 0.021606874 -0.090819538 0.047514468
2.5037482 -1.0109725 0.34427699 13810889 -0.89993954 0.38257521 -0.20915332 0.098152317
2.5287094 -1.0047709 0.34953088 13613509 -0.99809819 0.039496865 -0.04732943 0.034703124
2.5208747 -0.99894762 0.34644964 13810888 -0.94785672 0.30135012 -0.10371008 0.085985832
2.5205185 -0.98021102 0.34676984 14140107 -0.97676361 0.1739265 -0.12522933 0.09315376
2.5201623 -0.96147418 0.34709004 13877194 -0.97224724 0.12525329 -0.19760318 0.052710198
2.538307 -0.94929588 0.34938109 13942987 -0.97795761 0.019543055 -0.20788695 0.052279919
2.5379481 -0.93042207 0.34970361 14008780 -0.98249805 0.03497139 -0.18296093 0.030553592
2.5190933 -0.90526402 0.34805059 14075343 -0.99317229 -0.041924063 -0.1088631 0.048089262
2.5187371 -0.88652736 0.34837079 14074573 -0.99415582 0.10783581 -0.0050663799 0.053587444
2.5405903 -0.78931844 0.34033543 14403539 -0.98051304 0.19255587 -0.038941473 0.041852389
2.5582876 -0.77594084 0.34239346 14600404 -0.95442933 0.15427795 -0.25546634 0.043848507
2.5581288 -0.75733829 0.34300542 14337743 -0.96080911 -0.043112509 -0.2738378 0.03239679
2.540118 -0.73389894 0.34215838 14469329 -0.97493607 -0.19875057 -0.099989876 0.029010298
2.5399606 -0.71542579 0.34276605 14535894 -0.99391127 -0.1077996 -0.022795724 0.026573153
2.539803 -0.69695264 0.34337372 15061983 -0.99967712 -0.018020492 0.0179154 0.023828052
2.5396457 -0.67847955 0.34398133 14536668 -0.99894571 0.015738159 -0.043125778 0.033225566
2.5394881 -0.66000634 0.34458899 14470875 -0.9794957 -0.14971195 -0.13481313 0.04060705
2.5393307 -0.6415332 0.34519666 14272980 -0.95430022 -0.25268918 -0.15955986 0.027179644
2.5213277 -0.61899996 0.34431976 14601944 -0.97259468 -0.20929311 -0.1012723 0.027512001
2.5211713 -0.60065633 0.3449232 14338515 -0.99311072 -0.0800381 -0.085586734 0.020499136
2.5210149 -0.58231258 0.34552658 14601432 -0.99861825 0.0040445053 -0.052396063 0.029496135
2.5208585 -0.5639689 0.34612995 14470361 -0.99614233 0.071483664 -0.050897509 0.030317225
2.5385432 -0.54916745 0.34823489 14733020 -0.96655214 0.21100248 -0.14579068 0.043252561
2.5383859 -0.53069431 0.34884256 14731991 -0.93838733 0.25167188 -0.23683444 0.041282803
2.5382283 -0.51222116 0.34945023 14733018 -0.94840485 0.029979045 -0.31564155 0.057450924
2.5200768 -0.47225043 0.34914696 14667225 -0.98232555 -0.11137435 -0.15044016 0.036473423
2.5199203 -0.45390671 0.34975034 14470359 -0.99559861 0.030986512 -0.088449083 0.025091505
2.5249557 -0.363929 0.34063339 14469848 -0.99951333 -0.014901639 -0.027406134 0.057986949
2.5245967 -0.34505522 0.34095594 14404055 -0.99379265 -0.11012784 -0.015750693 0.042688962
2.52352 -0.2884337 0.34192353 14338260 -0.98540235 0.091596842 -0.14350019 0.034153897
2.5231612 -0.26955986 0.34224609 14469846 -0.99407417 -0.033372909 -0.10345444 0.046490114
2.5496914 -0.25450709 0.34139216 14075088 -0.97988909 0.06690947 -0.18799058 0.040133677
2.5044136 -0.24920225 0.34064719 14338260 -0.99573082 -0.049750298 -0.077750295 0.054076292
2.5224433 -0.23181216 0.34289116 14535639 -0.98793894 0.13841249 -0.069416314 0.045425959
2.5495329 -0.23590446 0.34200412 14008781 -0.98355091 0.044243142 -0.17512918 0.038772479
2.5220845 -0.21293832 0.34321368 14272467 -0.98641253 0.13116354 -0.098926552 0.037426759
2.5315816 -0.21609358 0.34116405 14008527 -0.99232888 -0.0095988484 -0.1232531 0.039696347
2.5217257 -0.19406451 0.3435362 14009297 -0.98763311 -0.054396518 -0.14704391 0.027839547
2.5314243 -0.19762044 0.34177172 13746127 -0.96168983 -0.22382414 -0.15828927 0.045524411
2.5213666 -0.17519067 0.34385875 14009810 -0.9946298 -0.0414753 -0.094823025 0.027212026
2.5312667 -0.17914727 0.34237933 13746127 -0.981794 -0.050876804 -0.18300855 0.064786151
2.5311093 -0.16067414 0.342987 13614537 -0.96890849 -0.040332507 -0.24411002 0.058222767
2.5210078 -0.15631683 0.34418127 14074320 -0.98592311 -0.094757713 -0.13775548 0.028967617
2.5487401 -0.14289147 0.34506363 13746123 -0.96606088 0.2174554 -0.13942595 0.070546895
2.520649 -0.13744299 0.34450382 14074320 -0.99237525 -0.064457677 -0.10505523 0.042591855
2.5307944 -0.12372785 0.34420228 13810889 -0.95327789 0.28884616 -0.088482291 0.062165584
2.5019195 -0.11804509 0.34288853 13942475 -0.99802315 -0.012049632 -0.06168123 0.046212558
2.5484228 -0.10568629 0.34628749 13548229 -0.97555143 0.21896695 0.018785462 0.050319649
2.5015633 -0.099308372 0.34320873 13942221 -0.9974286 0.051571194 0.049765565 0.041236565
2.519572 -0.080821507 0.34547141 13811150 -0.99418885 0.10431055 0.026606597 0.035527688
2.5482643 -0.087083682 0.34689939 13679562 -0.94186193 -0.13281712 -0.30863526 0.062352002
2.5192132 -0.061947666 0.34579396 13482953 -0.99661225 0.057303671 0.058994543 0.020047901
2.5481057 -0.068481095 0.34751129 13417160 -0.92124176 -0.16553482 -0.35201132 0.047023907
2.5188544 -0.043073833 0.34611648 13679816 -0.99820673 0.011741743 0.05869833 0.011245075
2.5301645 -0.049835254 0.3466329 13285574 -0.93560475 0.020259619 -0.35246745 0.065379895
2.5300069 -0.031362105 0.34724057 13416392 -0.92461973 0.16641457 -0.34261435 0.056189854
2.5184953 -0.024200002 0.34643903 13745608 -0.9929269 -0.020835673 0.11688533 0
2.5181365 -0.0053261654 0.34676155 13548230 -0.99292576 -0.020870971 0.11688828 0
2.5474715 0.0059292996 0.3499589 13219265 -0.92036527 -0.29474181 -0.25701195 0.081453167
2.5177777 0.013547668 0.34708411 13482437 -0.98963135 -0.12333202 0.073613763 0.018157434
2.5295346 0.024057344 0.34906352 13152705 -0.89040542 -0.41310582 -0.1911066 0.049081072
2.5174186 0.032421507 0.34740663 13284804 -0.96327043 -0.26716998 0.02702486 0.026784746
2.5293772 0.042530488 0.34967119 13020862 -0.92288202 -0.33051175 -0.19761282 0.046312597
2.498713 0.05058552 0.34577027 13416390 -0.98478419 -0.16639964 -0.05011319 0.048924215
2.4983566 0.069322251 0.34609044 13481924 -0.99664652 0.034655116 -0.074126728 0.053886466
2.5114441 0.060270179 0.34876305 12890300 -0.96774501 -0.082025021 -0.23820469 0.049330406
2.5112877 0.07861387 0.34936649 13219264 -0.95472103 0.1191074 -0.27261934 0.031099092
2.5163419 0.089042999 0.34837422 13481923 -0.99224681 0.074516304 -0.099466681 0.045321774
2.5159831 0.10791684 0.34869677 13218752 -0.97098291 0.056939129 -0.23227182 0.033720177
2.5156243 0.12679069 0.34901929 13284291 -0.97937709 -0.015580395 -0.20143934 0.034277514
2.5152652 0.14566453 0.34934184 13218752 -0.97482783 0.065920472 -0.21299107 0.031224268
2.5149064 0.16453835 0.34966436 12889787 -0.99895722 0.045640964 -0.0011798517 0.037338328
2.5145476 0.18341218 0.34998691 13021119 -0.99663097 -0.060598712 0.055267822 0.049663231
2.4955063 0.21921614 0.34865198 13085626 -0.98707879 -0.15333354 0.046522189 0.059504818
2.4951499 0.23795289 0.34897217 12888506 -0.97077024 0.10724145 -0.21471952 0.069130808
2.5410955 0.26692677 0.34039092 12429236 -0.9761914 0.21430731 -0.033508658 0.031744231
2.5409369 0.28552932 0.34100282 12427955 -0.96592373 0.25804937 -0.020046547 0.033803076
2.5585108 0.30655211 0.34305978 12493488 -0.99759996 0.0347564 0.059885532 0.047310472
2.5406196 0.32273453 0.34222668 11967920 -0.99845153 0.01704113 0.052954972 0.050905351
2.5404611 0.34133714 0.34283859 12231597 -0.99976236 -0.014297163 -0.016458586 0.040435821
2.5580318 0.36274827 0.34490824 12165551 -0.99914312 0.035263598 -0.021671087 0.03425302
2.5578721 0.38148028 0.34552443 12230829 -0.99470359 0.073948294 -0.071390122 0.018448653
2.5577123 0.40021235 0.34614062 12230316 -0.99415421 0.010934249 -0.10741473 0.019261327
2.5575526 0.41894436 0.34675676 12098477 -0.99425817 0.0017593076 -0.10699389 0.019001488
2.5573931 0.43767643 0.34737295 11967402 -0.99410111 -0.0078070331 -0.10817578 0.019296991
2.5572333 0.4564085 0.34798908 11835816 -0.99311829 -0.083659142 -0.081958428 0.0200227
2.5570736 0.47514051 0.34860528 11901609 -0.98981649 -0.11428586 -0.08486513 0.019333584
2.5391927 0.4901579 0.34773386 11769765 -0.9898926 -0.11388143 -0.084520675 0.018611856
2.5431206 0.49340174 0.34015429 12164272 -0.97770202 0.20963174 -0.012383118 0.032185428
2.5390341 0.50876051 0.34834576 11572899 -0.99311513 -0.083123729 -0.082539983 0.019128045
2.5388753 0.52736312 0.34895766 11572899 -0.99554938 0.053041555 -0.077898264 0.019725831
2.5423925 0.53169775 0.34080875 11639206 -0.99418801 0.020549692 0.10567826 0.034358345
2.5387168 0.54596573 0.34956956 11440800 -0.99312419 0.087341323 -0.077948242 0.018894259
