# .PCD v0.7 - Point Cloud Data file format
VERSION 0.7
FIELDS x y z rgb normal_x normal_y normal_z curvature
SIZE 4 4 4 4 4 4 4 4
TYPE F F F U F F F F
COUNT 1 1 1 1 1 1 1 1
WIDTH 504
HEIGHT 1
VIEWPOINT 0 0 0 1 0 0 0
POINTS 504
DATA ascii
0.39319509 -0.206319 -0.018048391 10782853 -0.093941182 -0.038736828 0.99482387 0.0018396075
0.40179867 -0.2067007 -0.017066613 10914443 -0.09918011 -0.033800662 0.99449527 0.0017953916
0.41028246 -0.20693821 -0.015842974 10782854 -0.11223443 -0.040883623 0.99284041 0.0013303543
0.42464778 -0.20665781 -0.01422219 10848905 -0.093119793 -0.018184124 0.99548888 0.00066144939
0.44176728 -0.20505351 -0.013197526 11177358 -0.12683019 -0.0053222687 0.99191022 0.0015393457
0.45450145 -0.20720029 -0.011242494 11177359 -0.09936288 -0.032485485 0.99452084 0.00273929
0.47530705 -0.20090573 -0.010625407 11309715 -0.056976721 -0.038850788 0.99761933 0.0029059248
0.37606901 -0.19691828 -0.018902242 10651525 -0.12138248 -0.017102772 0.99245852 0.0015039891
0.39059353 -0.19682893 -0.017664015 10717319 -0.10288022 -0.022358244 0.99444246 0.0010689772
0.40172899 -0.19705898 -0.016780093 10980236 -0.10093164 -0.0217239 0.99465621 0.00090989284
0.41098157 -0.19832516 -0.016320482 10913674 -0.09323138 -0.017726529 0.99548668 0.00080144545
0.42153957 -0.19844218 -0.015527412 10914186 -0.087122321 -0.015314715 0.99607998 0.00065046758
0.43082768 -0.19449276 -0.014213994 11045774 -0.1068726 -0.017526079 0.99411827 0.0012659503
0.44039136 -0.1983238 -0.013301447 11242896 -0.12800094 9.6530654e-05 0.99177408 0.0014833314
0.45146269 -0.19694358 -0.010800451 11243153 -0.14722662 -0.023411388 0.98882574 0.0020511786
0.38194603 -0.18900117 -0.019362643 10651526 -0.10972866 -0.042750388 0.99304181 0.0011226181
0.40479475 -0.18835428 -0.016048893 10979980 -0.10145097 -0.030311706 0.99437869 0.00071283325
0.41884392 -0.18722379 -0.014707074 10914186 -0.083800256 -0.035668705 0.99584401 0.00081383152
0.42003399 -0.18004143 -0.014757782 10914443 -0.080903098 -0.05000649 0.99546677 0.00056312844
0.44107619 -0.18796617 -0.013370261 11242897 -0.12280308 -0.018386165 0.99226075 0.0017999511
0.45570797 -0.18742272 -0.011794776 11374484 -0.13518561 -0.023125775 0.99055034 0.0026287767
0.4084065 -0.17794342 -0.015250593 11046027 -0.092328027 -0.044566248 0.99473083 0.00069711317
0.43489006 -0.17608103 -0.012967184 11440278 -0.096192494 -0.04228542 0.99446416 0.0013170543
0.44304639 -0.17826441 -0.012830049 11309202 -0.12021309 -0.032155901 0.99222726 0.0014541732
0.45183387 -0.1778198 -0.011236504 11112336 -0.15086399 -0.022393906 0.98830092 0.0017066773
0.41538155 -0.16638261 -0.013855949 11046027 -0.090060465 -0.035820689 0.99529195 0.0016514903
0.42960656 -0.16837819 -0.012872711 11243155 -0.085465506 -0.042561248 0.99543172 0.0017345463
0.43048277 -0.16196696 -0.012997538 11440276 -0.090612248 -0.036322199 0.99522364 0.0023421275
0.4443202 -0.16521561 -0.011572927 11374482 -0.088498652 -0.036164135 0.99541956 0.0032379804
0.41393125 -0.1562611 -0.01455918 11177356 -0.12059395 -0.038900368 0.99193949 0.0022009236
0.42174774 -0.15532838 -0.013350375 11177101 -0.1096281 -0.047122542 0.99285507 0.0022919504
0.44891715 -0.15392986 -0.011858828 11373713 -0.08300025 -0.026227739 0.99620438 0.0049091266
0.42336074 -0.14591898 -0.013417497 11243152 -0.11185104 -0.034726482 0.99311799 0.0030426476
0.43246391 -0.14751452 -0.010843039 11506069 -0.097610712 -0.060716532 0.99337089 0.0027885416
0.44157854 -0.14693935 -0.011198208 11374741 -0.075047903 -0.040152505 0.99637121 0.0064388658
0.46118653 -0.14593217 -0.01350902 11637912 -0.10542636 -0.017080836 0.99428046 0.00470663
0.40739137 -0.13355051 -0.014350697 11308689 -0.1246342 -0.043798309 0.99123561 0.0030214151
0.41508538 -0.13680902 -0.013477057 11111311 -0.12784918 -0.046310782 0.99071181 0.0032560751
0.42834201 -0.13192382 -0.010392547 11374227 -0.11228159 -0.055191446 0.99214256 0.0030609153
0.43318975 -0.1365499 -0.011343539 11440534 -0.10341865 -0.053086072 0.99322033 0.0030539792
0.44284397 -0.13912092 -0.010828182 11308691 -0.084740914 -0.056941234 0.9947747 0.0047958861
0.41447392 -0.12409898 -0.011423215 11309463 -0.12647229 -0.040259589 0.99115288 0.0030159641
0.42426407 -0.12765212 -0.012377575 11374226 -0.11443516 -0.051919829 0.99207306 0.0029008812
0.40464532 -0.11293984 -0.014153697 11112082 -0.13440914 -0.026683386 0.99056661 0.00196712
0.4127236 -0.11763979 -0.012535028 11177360 -0.12384243 -0.02707668 0.99193239 0.0020039398
0.42436931 -0.11675413 -0.012576386 11374480 -0.1183899 -0.015980951 0.99283862 0.0022030321
0.43375394 -0.11737383 -0.010815024 11506069 -0.087742537 -0.012862083 0.99606013 0.0013942298
0.40914145 -0.10743702 -0.013707191 11046028 -0.12939638 -0.026155179 0.99124795 0.0018860262
0.42721391 -0.10429487 -0.010220572 11177619 -0.11933858 -0.010106894 0.9928022 0.0017003512
0.39401418 -0.095225379 -0.016231716 10980750 -0.10956864 -0.035957258 0.99332869 0.0015797069
0.40539673 -0.094678327 -0.01288072 11111568 -0.11075219 -0.036570959 0.99317497 0.0020509339
0.42355689 -0.097219944 -0.011133686 11374484 -0.10584353 -0.01610516 0.99425238 0.0017000166
0.43662924 -0.095285214 -0.010908917 11440534 -0.1004258 -0.013741173 0.99484968 0.0013530558
0.40456307 -0.085681558 -0.013314545 11111567 -0.10606183 -0.036737416 0.99368066 0.0016843969
0.41577739 -0.085112341 -0.012600139 11177105 -0.10113227 -0.041045971 0.99402595 0.0018567286
0.4203214 -0.087260544 -0.010976315 11243155 -0.10730124 -0.044970695 0.993209 0.0020738298
0.36957297 -0.076308228 -0.017328322 10914704 -0.10438164 -0.03746213 0.99383152 0.0015774302
0.37206611 -0.073194861 -0.015259936 10914957 -0.10567079 -0.034390699 0.9938063 0.0014850497
0.39442205 -0.074105158 -0.013092424 10914960 -0.1112423 -0.052311976 0.99241555 0.0012903096
0.41536593 -0.079721428 -0.012465671 11177361 -0.10122065 -0.041080795 0.99401551 0.0018537613
0.36647093 -0.065655984 -0.016974285 10849168 -0.10979352 -0.025780562 0.99362004 0.0014085828
0.37595171 -0.06309291 -0.015198655 10914703 -0.10415489 -0.02616418 0.99421692 0.0014266343
0.38121811 -0.067866541 -0.014721408 10980496 -0.1065639 -0.031900197 0.99379402 0.0014884011
0.37161165 -0.056982305 -0.01521042 10848654 -0.10810734 -0.020960514 0.99391824 0.0014599331
0.39768773 -0.04406359 -0.011445388 11112087 -0.10318753 -0.0066419281 0.99463975 0.00089430733
0.40575981 -0.044096027 -0.011874318 10980752 -0.12859936 -0.026697893 0.99133724 0.0027983636
0.39786196 -0.034948733 -0.012884532 11046291 -0.10023127 -0.030061563 0.99450994 0.0010922953
0.40675262 -0.037124276 -0.012474671 11045776 -0.12756832 -0.027864976 0.99143827 0.0035237442
0.4143486 -0.036307339 -0.010232463 10914960 -0.12633491 -0.025017295 0.99167216 0.0036901729
0.42554012 -0.036877174 -0.010323778 10849167 -0.13679148 -0.028870303 0.99017912 0.0034440039
0.40685362 -0.026663015 -0.012665495 10979981 -0.12926744 -0.028456006 0.9912014 0.0036476494
0.41539523 -0.028714662 -0.010603964 11045779 -0.13508289 -0.04148877 0.98996532 0.0029993767
0.39709204 -0.016752863 -0.012418285 10980755 -0.12251171 -0.043410875 0.99151725 0.0012426842
0.40386829 -0.016358405 -0.011276439 10914704 -0.12049831 -0.042180561 0.991817 0.0012326239
0.38660607 -0.0040119938 -0.01343596 10717327 -0.1119872 -0.044764675 0.99270087 0.0010416791
0.39312199 -0.0042934902 -0.011423275 10914708 -0.11172265 -0.043090224 0.99280477 0.0010738565
0.40509841 -0.0065838215 -0.010531738 10849166 -0.11112288 -0.041280657 0.99294901 0.0011306134
0.38687786 0.0015665647 -0.012444183 10848655 -0.10946237 -0.037656389 0.99327743 0.0011176676
0.39566427 0.0027214149 -0.011926964 10979985 -0.1035514 -0.028378859 0.99421918 0.0014639236
0.40538928 0.0019281623 -0.010407522 10914192 -0.10232086 -0.026620574 0.9943952 0.0017579818
0.41236082 0.0052515417 -0.010186747 10979984 -0.080113053 -0.016923524 0.99664211 0.0016997126
0.39680582 0.014743526 -0.010838374 10914707 -0.11020323 -0.0050674914 0.99389619 0.0015083224
0.40680936 0.011648243 -0.010326192 10848398 -0.08922682 -0.0039849845 0.99600333 0.0017406289
0.40508905 0.031068228 -0.010020122 10848652 -0.065897845 0.022787394 0.99756616 0.0021769768
0.41322437 0.034704588 -0.010376498 10914960 -0.084892303 0.0092892945 0.99634683 0.0028195435
0.36590573 0.048152335 -0.013330147 10979983 -0.080026232 0.0031376018 0.99678785 0.00156994
0.38637289 0.044748235 -0.012741417 10848653 -0.08404775 0.011158429 0.99639928 0.0015781723
0.40571922 0.042705446 -0.010192469 10848398 -0.089229114 0.0060100039 0.99599302 0.0021436182
0.36657962 0.054660022 -0.013794169 10783116 -0.079783082 -0.0051754108 0.99679887 0.0017261475
0.38136557 0.052077536 -0.012771398 10782861 -0.081034109 0.0013397615 0.99671042 0.0016408527
0.39862904 0.053412795 -0.013223723 10914448 -0.090725064 -0.0011352524 0.99587536 0.0021012179
0.40068945 0.053774931 -0.010584608 10979982 -0.10811114 -0.0036167244 0.99413228 0.0022547031
0.36697799 0.064279497 -0.01414232 10651531 -0.075436808 -0.03054967 0.99668252 0.0018906896
0.37429553 0.063909583 -0.012365326 10651530 -0.075499959 -0.030559754 0.99667746 0.0018787523
0.38622588 0.065746397 -0.012321264 10651532 -0.085423864 -0.016784068 0.99620336 0.0015924596
0.39432913 0.065965623 -0.011758015 10848913 -0.085670859 -0.028372001 0.99591941 0.0014791401
0.40338796 0.066734701 -0.010444857 10848397 -0.10759526 -0.0091534881 0.99415261 0.0021735877
0.36599761 0.073553413 -0.014563277 10651788 -0.075328395 -0.030515166 0.99669176 0.0019122359
0.37492546 0.07638143 -0.012716867 10585740 -0.075537473 -0.030573927 0.99667418 0.0018629588
0.39417887 0.070984147 -0.011141345 10914704 -0.089022309 -0.025818873 0.99569494 0.0015339173
0.36493209 0.0819261 -0.014072329 10717068 -0.073065042 -0.015518674 0.99720645 0.001352979
0.37314478 0.097843692 -0.01102224 10520199 -0.090873107 -0.017578531 0.99570733 0.0004761235
0.36483184 0.12676457 -0.013728425 10387845 -0.099963993 -0.0093435952 0.9949472 0.00029205607
0.37427267 0.13271762 -0.012074694 10322566 -0.098950617 0.0040990287 0.99508393 0.00042230493
0.3758913 0.14312528 -0.011774197 10256772 -0.10160951 -0.012251313 0.99474895 0.00027618904
0.38498655 0.14283186 -0.010889515 10322309 -0.10240838 -0.012874583 0.99465913 0.00030185049
0.39521322 0.14370443 -0.010801569 10453894 -0.10171737 -0.011072479 0.99475175 0.00035788672
0.37937808 0.15353574 -0.011602655 10125702 -0.10723768 -0.018517163 0.99406099 0.00057353848
0.38583592 0.15518466 -0.010777496 10125187 -0.10454518 -0.017553551 0.99436527 0.00066405057
0.39602274 0.16257319 -0.010556594 10322310 -0.10947415 -0.0052398145 0.99397588 0.0016055041
0.58535063 -0.36622956 -5.0082803e-05 10914963 -0.10473824 0.011957333 0.99442792 0.0018645249
0.56760377 -0.35745728 -0.0014181733 10783376 -0.11154505 0.0009360612 0.99375898 0.0019211572
0.58639294 -0.35705531 -0.00054860115 10849937 -0.087681383 0.021924831 0.99590731 0.0020616611
0.53632289 -0.34432024 -0.0044686347 9401726 -0.11957579 0.021432528 0.99259371 0.0032452196
0.54387349 -0.34364799 -0.0050026923 10782601 -0.14071839 0.018177122 0.98988283 0.0025891843
0.55040437 -0.34893844 -0.0025810152 10651275 -0.12059362 0.011355392 0.99263704 0.0022552568
0.56448555 -0.34496641 -0.0021209195 11046290 -0.12632075 -0.021044744 0.99176615 0.0025106629
0.54205316 -0.33585623 -0.0044228062 10717064 -0.13361698 0.025038196 0.9907167 0.0024803842
0.55240399 -0.33847475 -0.003478989 10586507 -0.123986 0.016013378 0.99215478 0.0023854915
0.57229519 -0.33828735 -0.0009034127 10981010 -0.10098308 -0.01136538 0.99482322 0.0027761792
0.50285006 -0.32344586 -0.0075205117 10585224 -0.086501196 -0.037162773 0.99555838 0.0036140219
0.51448959 -0.3271164 -0.0077155977 10585482 -0.06317769 -0.014254311 0.99790049 0.002736513
0.52718949 -0.32236856 -0.0082683563 10914189 -0.067003459 0.017236045 0.99760389 0.0027720502
0.53114831 -0.32835904 -0.005060479 8481908 -0.089566514 0.0087208357 0.99594265 0.0036772047
0.54311639 -0.32390592 -0.0050018653 10979977 -0.13982566 0.016288767 0.99004215 0.0021006567
0.55580276 -0.32839233 -0.0024480671 10849166 -0.14894991 0.0040573766 0.98883641 0.0025056298
0.571123 -0.3281852 -0.00063623488 11046801 -0.10598013 0.01581767 0.99424243 0.0029759605
0.47612527 -0.31031939 -0.009455964 10520461 -0.13858186 -0.026512548 0.98999608 0.0022454967
0.49178973 -0.31668323 -0.0088896006 10585991 -0.11601293 -0.022832967 0.99298525 0.0029821685
0.50337976 -0.31736434 -0.0078269392 10585739 -0.086422093 -0.037113123 0.99556708 0.0036309564
0.51309615 -0.31960946 -0.0049745291 10717323 -0.057973891 -0.016504798 0.9981817 0.0027270422
0.5342375 -0.31878513 -0.0064020604 8811383 -0.083713844 -0.0014747744 0.99648875 0.0034473417
0.54224956 -0.31552154 -0.0047938079 10718859 -0.13987538 0.011199287 0.99010581 0.0020765397
0.55415845 -0.31917968 -0.0027853996 10980238 -0.14790739 0.022936428 0.98873526 0.0018154744
0.56206423 -0.3172318 -0.0024750084 11309196 -0.13987264 0.040867437 0.98932582 0.0018727545
0.57155305 -0.31652331 -0.00096186996 11111822 -0.092803702 0.020367337 0.99547613 0.0024846394
0.4848097 -0.3073591 -0.0089305788 10651785 -0.13206977 -0.017659616 0.99108315 0.0024257465
0.50201958 -0.30908659 -0.0062494874 10651528 -0.095400237 -0.030610826 0.99496824 0.0040861592
0.51531506 -0.30993342 -0.0059988648 10783373 -0.05419296 -0.022373654 0.99827981 0.0027387722
0.54454154 -0.30590531 -0.0047366372 10914956 -0.14805542 0.012588216 0.98889893 0.0017450735
0.56215417 -0.30791572 -0.002644971 11047052 -0.12489073 0.018124631 0.99200499 0.0018528017
0.57404917 -0.3045705 -0.0020264313 11112588 -0.10367372 0.020937806 0.99439096 0.0026354329
0.47189054 -0.29616532 -0.009902373 10520202 -0.13031614 0.019737668 0.99127603 0.0026898866
0.48039192 -0.29809281 -0.0093295723 10717576 -0.13252716 0.011565641 0.99111193 0.0024224066
0.4939909 -0.29853487 -0.0069440827 10651787 -0.10703093 0.018933548 0.99407542 0.0027344651
0.53661978 -0.29724175 -0.0052661151 10389125 -0.10000052 0.0059606209 0.99496955 0.0025857012
0.55562007 -0.29816377 -0.0028227866 11046798 -0.11647901 0.023242246 0.99292111 0.0027472787
0.56796551 -0.29358289 -2.5987625e-05 11309197 -0.11720691 0.018102149 0.99294251 0.0019177381
0.5841049 -0.29769361 -0.00063818693 11309717 -0.1259484 0.0066923965 0.99201423 0.0029621909
0.4809562 -0.28819892 -0.0097167343 10717066 -0.14018707 0.026672065 0.98976576 0.0023294252
0.49205348 -0.28472582 -0.007992208 10585743 -0.12413161 0.040652197 0.99143273 0.0028096538
0.50595862 -0.28859729 -0.0070392713 10914185 -0.080735125 0.018095165 0.9965713 0.0029818765
0.53406781 -0.28735864 -0.0067911595 10521486 -0.076558411 -0.028323535 0.9966628 0.0038868571
0.54251128 -0.2884149 -0.0052883327 10915726 -0.11882147 -0.024289165 0.9926185 0.0041340962
0.55291152 -0.28519732 -0.0036335737 10717068 -0.12269121 -0.013098179 0.99235845 0.0039773118
0.56190592 -0.28440011 -0.0029009581 11047314 -0.13041596 -0.041975692 0.99057043 0.0048334119
0.57230145 -0.28833175 -0.0016454905 11047060 -0.11445695 -0.028645251 0.99301511 0.0037183755
0.58521795 -0.28119904 -0.0012702495 11048345 -0.11944349 -0.030228186 0.99238074 0.0044604233
0.49091527 -0.27740759 -0.009074986 8677476 -0.11814843 0.036476467 0.99232578 0.0027722192
0.50467169 -0.27521721 -0.0067138225 8808536 -0.11925592 0.011239725 0.99279994 0.0033104056
0.51865649 -0.27650699 -0.005533345 8153440 -0.058293186 -0.025315998 0.99797851 0.0033445954
0.53226912 -0.27762425 -0.0062317401 8217952 -0.074904345 -0.027003648 0.99682504 0.0032665273
0.54592413 -0.27852494 -0.0067323297 10521486 -0.12124822 -0.041010782 0.99177468 0.0028891999
0.5738157 -0.27944386 -0.0023155361 9335923 -0.11018059 -0.038444567 0.99316782 0.00374493
0.48942199 -0.26979688 -0.0085473806 11177356 -0.12032583 0.0036461055 0.99272782 0.0027372015
0.50244296 -0.26807287 -0.0081398338 11045011 -0.12588035 0.00094398303 0.99204499 0.0028797365
0.51145118 -0.26729488 -0.0073371381 11046286 -0.08087033 -0.0082961246 0.99669015 0.0030107729
0.52954876 -0.26535168 -0.0053501725 9269616 -0.076484159 -0.03874363 0.9963178 0.0036441837
0.5365712 -0.26557228 -0.0033584237 11573665 -0.091387331 -0.042576145 0.99490488 0.003465669
0.54739571 -0.26728952 -0.0026564002 11046551 -0.11112736 -0.061963383 0.99187261 0.0021521912
0.55398589 -0.26964325 -0.0018385202 12098204 -0.12447615 -0.057947494 0.99052906 0.0034957901
0.5682832 -0.26068327 -0.0006262064 11573139 -0.11023375 -0.025883235 0.9935686 0.0037919134
0.5701353 -0.26611665 -0.0012042671 11704224 -0.098441876 -0.057094395 0.99350363 0.0026805627
0.46603867 -0.25563103 -0.0099884719 10979979 -0.10124758 -0.041858695 0.99398029 0.0027188703
0.47957107 -0.2582545 -0.0099654049 10980234 -0.089334242 -0.0054978929 0.99598652 0.002200908
0.49233362 -0.25571868 -0.0085214227 11046027 -0.12631364 0.0083073135 0.99195558 0.0034175804
0.50485647 -0.2561596 -0.0070577711 11308434 -0.1143997 0.013399797 0.99334449 0.003183356
0.51325148 -0.25491738 -0.0059518367 11112337 -0.098290503 0.024896398 0.99484634 0.0034385694
0.52917337 -0.25522736 -0.0053506196 10782083 -0.087676689 -0.0062628277 0.99612933 0.0024055373
0.54489321 -0.25967088 -0.004208222 11376024 -0.12016156 -0.049362637 0.99152642 0.0025681034
0.557868 -0.25948194 -0.0017981976 11375509 -0.13365489 -0.046713475 0.9899264 0.0037033437
0.56930017 -0.25398099 -0.0010870546 11572627 -0.086447053 0.0043592141 0.99624693 0.0037658829
0.46518302 -0.24732563 -0.0097191781 10914441 -0.084899828 -0.019504698 0.99619859 0.001972069
0.49599907 -0.24527355 -0.0087350355 11243152 -0.11372761 -0.0046654735 0.99350101 0.0027610494
0.51453888 -0.24761358 -0.0061192513 11243666 -0.11126654 0.0048660813 0.99377871 0.0029749935
0.52974069 -0.24547023 -0.0057128891 11111305 -0.086214758 -0.0026874952 0.99627298 0.0021124431
0.5343613 -0.24904644 -0.0027573705 11574178 -0.11152461 0.00045583391 0.99376154 0.0018870075
0.54423165 -0.24475706 -0.0031928346 11309973 -0.13971759 -0.020757493 0.98997378 0.0027447748
0.55658078 -0.2451022 -0.0015414432 11572374 -0.093997426 -0.042154621 0.99467963 0.0048941653
0.56654394 -0.24356854 -0.00026122481 11638165 -0.093855143 -0.013056217 0.99550027 0.0068163113
0.48371294 -0.23812446 -0.0094579309 11308686 -0.082766727 -0.0044581341 0.99655902 0.0021699718
0.50166744 -0.23459458 -0.0082945526 11440788 -0.10882658 -0.028106602 0.99366331 0.0029987711
0.51365095 -0.23781495 -0.0063671917 11375505 -0.10400243 -0.0022515738 0.99457449 0.0031522471
0.52915084 -0.23306406 -0.0056628436 11704211 -0.1056378 -0.016928703 0.99426061 0.0018350794
0.53449017 -0.23570071 -0.0030008405 11507874 -0.11754453 -0.018975303 0.9928863 0.0019227699
0.57135767 -0.23814653 -0.0020531565 11703957 -0.059164479 -0.015589845 0.99812657 0.0055284626
0.48376784 -0.22884285 -0.0085225403 11309459 -0.089009479 -0.033684246 0.99546111 0.0018442379
0.49118826 -0.22826236 -0.008424744 11243409 -0.10312662 -0.032776184 0.99412817 0.0020883472
0.50835609 -0.22961879 -0.0066185296 11440788 -0.085198909 -0.04601232 0.99530107 0.0020391403
0.51676333 -0.22795692 -0.0054791719 11440790 -0.1008518 -0.062966153 0.99290693 0.0021628239
0.52104008 -0.22055516 -0.0049807876 11572887 -0.11100423 -0.041687064 0.99294525 0.001830181
0.53691632 -0.22983509 -0.0040104091 11244954 -0.15338224 -0.023601508 0.98788506 0.0039547831
0.54729599 -0.22847049 -0.003187865 11506324 -0.12638323 -0.028715625 0.99156582 0.0049413913
0.55405146 -0.22806498 -0.00087173283 11638165 -0.086389199 -0.020378048 0.9960531 0.0049075419
0.57144886 -0.22870092 -0.0022254735 11770264 -0.062437557 -0.034005962 0.99746943 0.0046361019
0.49278829 -0.21828315 -0.0070314482 11374738 -0.10329992 -0.026629157 0.99429375 0.0023539525
0.50285661 -0.21935505 -0.0067556947 11506070 -0.12387957 -0.034240536 0.99170637 0.0024185861
0.53655165 -0.21852122 -0.0040362924 11112086 -0.14010631 -0.021747353 0.98989761 0.0040634936
0.54407132 -0.21833466 -0.0021353513 11507093 -0.12187001 -0.01707131 0.99239928 0.0043814536
0.55495214 -0.21683535 -0.0013649911 11573146 -0.10102852 -0.012956948 0.99479914 0.004530428
0.56582069 -0.21985823 -0.00035521388 11704474 -0.087226123 -0.018498328 0.9960168 0.0052735219
0.46183261 -0.20661603 -0.0087786466 11374223 -0.097944096 -0.037108809 0.9944998 0.002760771
0.47304973 -0.20817754 -0.009528324 11374995 -0.064723596 -0.029456541 0.99746841 0.0023617242
0.48164904 -0.20878431 -0.0089785457 11243923 -0.090693653 0.00065636355 0.9958787 0.0026637572
0.49091914 -0.20744292 -0.0086054057 11440790 -0.13070489 0.0015767086 0.99142009 0.0017943141
0.51739812 -0.20857842 -0.0048655272 11573143 -0.095046148 -0.050918352 0.99416983 0.0019385741
0.52161187 -0.20529701 -0.0031293482 12098455 -0.09327434 -0.039620761 0.99485183 0.0013959153
0.53429687 -0.2066433 -0.0033504516 10650253 -0.084765986 -0.039623342 0.99561274 0.0018274576
0.543212 -0.2090096 -0.001951918 11769238 -0.12424772 -0.0091640055 0.99220896 0.0041506551
0.55314475 -0.20708264 -0.0008507669 11638169 -0.12051768 -0.00055986742 0.99271107 0.003515376
0.45421323 -0.19072767 -0.0096938312 11440274 -0.13674365 -0.022358885 0.99035418 0.002859714
0.46656135 -0.19728036 -0.0099781603 11308946 -0.086633012 -0.034602527 0.9956392 0.0031027445
0.48102048 -0.19728446 -0.0077829808 11571863 -0.05214721 -0.05625594 0.99705368 0.002544218
0.49495262 -0.19714326 -0.008241497 11506326 -0.13697623 -0.028809045 0.99015534 0.0026751966
0.5058223 -0.1989494 -0.0060277581 11703961 -0.11422363 -0.026697014 0.99309635 0.0031850305
0.51375777 -0.19675383 -0.0047325492 11572630 -0.1182851 -0.024384148 0.99268025 0.002305629
0.52767235 -0.19834968 -0.0055898875 12032918 -0.094932869 -0.02238627 0.99523199 0.0014209457
0.53812939 -0.19866563 -0.0025606304 10848394 -0.095942527 -0.025156157 0.99506897 0.0016789115
0.55702615 -0.19897871 -0.0023829192 11704221 -0.1078911 -0.025423296 0.99383759 0.0011443848
0.46671262 -0.1852847 -0.0081008971 11506326 -0.091214955 -0.019176394 0.9956466 0.0032810899
0.48137718 -0.18833424 -0.009148702 11506839 -0.078316815 -0.047691803 0.99578714 0.002837325
0.49386048 -0.18847971 -0.0079034492 11572119 -0.12658894 -0.053279888 0.9905234 0.0024828892
0.50614226 -0.18728536 -0.0051998943 11507097 -0.12441407 -0.048142187 0.99106181 0.0029976605
0.51520646 -0.18837599 -0.0031390041 11835544 -0.10730803 -0.033444833 0.99366319 0.0035425955
0.53507423 -0.18561612 -0.0027709082 9662331 -0.087847225 -0.021881588 0.9958936 0.0030071572
0.54155773 -0.1837171 -0.0017062575 12097950 -0.11750463 -0.044814866 0.99206066 0.0033825254
0.55311781 -0.18526411 -0.0011623129 11835033 -0.1081675 -0.037246346 0.99343467 0.0017881754
0.46289369 -0.17750043 -0.0096605271 11309718 -0.11104368 -0.026137318 0.99347174 0.0022878991
0.47266057 -0.17859559 -0.0083369166 11506071 -0.091948956 -0.037014361 0.99507558 0.0028015827
0.4824293 -0.1774711 -0.0071524829 11506070 -0.073653914 -0.026540525 0.99693066 0.0025825964
0.49435434 -0.17913628 -0.0060486943 11637657 -0.12598144 -0.033796631 0.99145675 0.0026696825
0.50644225 -0.17773898 -0.0043315738 11572118 -0.11237532 -0.023381162 0.99339074 0.0026170928
0.52379388 -0.17532556 -0.004413113 11703446 -0.084402226 -0.050486255 0.995152 0.0031605335
0.53032106 -0.17668127 -0.0022724718 8807022 -0.08040756 -0.050074175 0.99550349 0.0031321959
0.54589748 -0.17412405 -0.0014641434 11966364 -0.11889103 -0.041268621 0.99204934 0.0030706478
0.45352316 -0.16542383 -0.0097271651 11374227 -0.10688738 -0.013055922 0.99418545 0.0041174986
0.46417329 -0.16858208 -0.0089511722 11506071 -0.11402568 -0.017589703 0.99332207 0.0016099843
0.47532919 -0.16656861 -0.0089671165 11637657 -0.076692201 -0.0088404547 0.99701566 0.00099312048
0.48564979 -0.16883306 -0.0069194585 11440534 -0.097402729 -0.028817879 0.99482775 0.0018305017
0.49649039 -0.16925558 -0.0070759505 11506841 -0.13183489 -0.030900922 0.99078995 0.0014685907
0.50421041 -0.16661191 -0.0043330193 11637656 -0.083881818 -0.0038994581 0.99646813 0.0022384564
0.51072812 -0.1680378 -0.0039405376 11637402 -0.12217212 0.003437208 0.99250305 0.0035489069
0.52527332 -0.16911972 -0.0050791055 11769240 -0.085945226 -0.007572873 0.99627113 0.003500445
0.53040624 -0.16786028 -0.0024334043 7096410 -0.1011173 -0.022006474 0.99463117 0.0033634326
0.5520978 -0.16781299 -0.0010480732 11703192 -0.097706825 -0.034006696 0.99463409 0.0020540319
0.45313144 -0.15761089 -0.0096555799 11440020 -0.090530455 -0.027386218 0.99551713 0.0050881351
0.46420851 -0.15728651 -0.0088455677 11440277 -0.1084567 -0.014577064 0.99399436 0.0048568384
0.47790471 -0.15902889 -0.008059904 11572890 -0.10728578 -0.0045186994 0.99421793 0.0034583656
0.48163897 -0.15371373 -0.0075858384 11571863 -0.11283328 -0.021605063 0.99337906 0.0034173706
0.49455467 -0.15838639 -0.0064272434 11768986 -0.10807945 -0.0070958054 0.99411696 0.0010117259
0.50401455 -0.15821734 -0.0058761686 11769499 -0.098917738 -0.0097249439 0.99504817 0.0018229969
0.51531774 -0.15562342 -0.0039126077 11769240 -0.10281571 -0.0043076337 0.99469107 0.0036730014
0.53402233 -0.15746205 -0.0016124398 8086129 -0.10610051 -0.030930163 0.99387425 0.0031269595
0.55028838 -0.15827866 -0.00052987039 11769498 -0.093669578 -0.026363449 0.99525422 0.0016873004
0.45320562 -0.14992872 -0.0097957402 11703193 -0.090699002 -0.02951734 0.99544078 0.0049409107
0.46467206 -0.1463507 -0.0087842196 11637913 -0.10371175 -0.024966747 0.99429405 0.0047101583
0.47477698 -0.14830635 -0.0082656443 11703706 -0.10238762 -0.020278074 0.99453795 0.0037039847
0.48350111 -0.14790665 -0.0063052773 11440534 -0.12492469 -0.036880724 0.99148053 0.0032539018
0.49416432 -0.14679928 -0.0053216666 11703706 -0.10037059 -0.037182435 0.99425513 0.0010055685
0.502527 -0.14944412 -0.0053971559 11835292 -0.099852219 -0.025959905 0.9946636 0.0017444134
0.5151701 -0.14314675 -0.0037799329 11768987 -0.095235616 -0.02467381 0.99514896 0.001675043
0.52519619 -0.14814685 -0.0030274987 9072248 -0.12499335 -0.0086865332 0.99211955 0.0035064933
0.53951448 -0.1495382 -0.0014459342 11705246 -0.1231432 -0.017161414 0.99224055 0.0024984914
0.54897481 -0.1466171 -0.00022350252 11637912 -0.1043859 -0.022742817 0.99427676 0.0027610289
0.45096725 -0.13981783 -0.0089095086 11572120 -0.074864864 -0.046438701 0.99611181 0.0041160206
0.46335506 -0.13723862 -0.0083248466 11637912 -0.10460064 -0.024153702 0.99422097 0.0035886997
0.47481942 -0.13824092 -0.0070186555 11572635 -0.11667158 -0.024994152 0.99285603 0.0034863909
0.48451796 -0.13997516 -0.0068483502 11505813 -0.13252595 -0.039784875 0.99038076 0.0029041143
0.49486443 -0.13828677 -0.0053612441 11768985 -0.09970662 -0.042481083 0.99410963 0.00072175305
0.50572598 -0.13584729 -0.0038977116 11768985 -0.095503911 -0.053820781 0.99397308 0.0011476255
0.52505422 -0.13827433 -0.0031192377 8678518 -0.094144471 -0.023704715 0.99527633 0.0020064777
0.53727496 -0.13569784 -0.00081457198 11705762 -0.13546906 -0.019879265 0.99058217 0.0020631424
0.48555577 -0.12513493 -0.0060420283 11703193 -0.10556477 -0.034271602 0.99382168 0.00068087247
0.49504906 -0.12511195 -0.004887104 11703450 -0.11460454 -0.032315589 0.99288547 0.00072026544
0.50433189 -0.12752761 -0.0041987747 11703705 -0.093399078 -0.046849146 0.99452591 0.00090857246
0.5285815 -0.12780699 -0.002321735 7954280 -0.08937268 -0.045545086 0.99495637 0.0012665393
0.53763032 -0.1234722 -0.0011260062 11639205 -0.11874434 -0.043141689 0.99198717 0.0027597435
0.55057436 -0.12866083 -0.0010702163 11572633 -0.13786182 -0.029133517 0.9900229 0.0026659144
0.44205785 -0.11554021 -0.0091821104 11571347 -0.08511585 -0.016015949 0.9962424 0.0012303375
0.47596923 -0.11639253 -0.0078231245 11835038 -0.11578898 -0.037568878 0.99256307 0.0010406913
0.50742805 -0.11841495 -0.0033419728 11506841 -0.095250875 -0.05060149 0.99416643 0.00070869125
0.51489228 -0.11718635 -0.0017888546 11966363 -0.08820723 -0.045311131 0.99507105 0.00079535868
0.43490297 -0.10525916 -0.0099513084 11440279 -0.10080321 -0.019523978 0.9947148 0.0014178494
0.44261432 -0.10622162 -0.0095699877 11440277 -0.087975085 -0.025856037 0.99578708 0.0013177594
0.45434096 -0.1038119 -0.0088804439 11506327 -0.10923161 -0.023623897 0.99373555 0.0020696656
0.46498433 -0.10503565 -0.0074144453 11638171 -0.095224038 -0.04006774 0.99464917 0.0018701908
0.47507173 -0.10414259 -0.0054686666 11637659 -0.1125276 -0.038634587 0.99289727 0.0019692283
0.48523411 -0.10738163 -0.0054289997 11703706 -0.10532665 -0.034594171 0.99383581 0.0015195576
0.49498895 -0.10327259 -0.0040868223 11638428 -0.1198834 -0.046825886 0.99168313 0.0022665821
0.50690138 -0.10773292 -0.0032862127 11572377 -0.10001992 -0.050340183 0.99371117 0.0015576847
0.51499563 -0.1064788 -0.0019842088 11834779 -0.078950495 -0.059756152 0.99508595 0.0013777901
0.5243547 -0.10748203 -0.0010077804 9665150 -0.083154604 -0.048292324 0.99536592 0.0023092725
0.54792327 -0.10781974 -0.00041221082 11769498 -0.13817076 -0.034597952 0.98980391 0.0029212027
0.44674367 -0.093384519 -0.0076152235 11441048 -0.099488467 -0.015723357 0.99491453 0.001946093
0.46280736 -0.097002894 -0.0086399764 11441047 -0.096348628 -0.02886354 0.99492908 0.0024855193
0.47470015 -0.094084539 -0.0054455027 11572377 -0.10883733 -0.015549744 0.99393797 0.0029085798
0.48484167 -0.099176757 -0.0053869635 11638172 -0.10903455 -0.051749669 0.99269003 0.0020439958
0.50574499 -0.09702564 -0.0029802769 11703704 -0.11106341 -0.033061538 0.99326324 0.0022764921
0.52585906 -0.098922223 -0.0017054826 10256258 -0.07156682 -0.051079001 0.99612713 0.0021501847
0.44414917 -0.085638672 -0.009210865 11308948 -0.099950269 -0.011134107 0.99493015 0.0017301106
0.45688877 -0.088621587 -0.0081960857 11440533 -0.11386737 0.0077220923 0.99346596 0.0026070881
0.46507382 -0.087265685 -0.0055927336 11506843 -0.10222895 -0.0084262798 0.99472517 0.0033452751
0.47342619 -0.088064387 -0.0071223527 11507353 -0.12879802 -0.0076389569 0.99164146 0.0032623257
0.48697945 -0.086457662 -0.0057419688 11506843 -0.12013806 -0.0078242058 0.99272639 0.0027959016
0.49416235 -0.087622888 -0.0028823167 11638427 -0.13249372 -0.023967505 0.99089402 0.0028922397
0.50299454 -0.088321462 -0.002011165 11572888 -0.11289925 -0.03498039 0.99299055 0.0024130684
0.52717 -0.087166041 -0.000517115 11243411 -0.076225042 -0.040914945 0.99625081 0.002022397
0.46975076 -0.079783142 -0.0056499988 11506841 -0.11603244 -0.01667616 0.99310547 0.0030983151
0.47506717 -0.074857585 -0.0065916777 11571864 -0.11280922 -0.026612854 0.99326015 0.0033058261
0.48451242 -0.076690085 -0.0034222156 11506843 -0.12061878 -0.029879116 0.99224913 0.003377944
0.49630454 -0.077448659 -0.0038987249 11637917 -0.12606291 -0.041504797 0.9911536 0.0031213495
0.50372535 -0.077879094 -0.0024523288 11572121 -0.10121074 -0.043074388 0.99393213 0.0032620709
0.51369321 -0.076319665 -0.0011501536 11440793 -0.086297207 -0.039587162 0.99548262 0.0029161337
0.52837467 -0.079370186 -0.00062076747 11572635 -0.087217122 -0.027970046 0.99579662 0.0022923397
0.4698844 -0.065946087 -0.0059024543 11441051 -0.10373218 -0.050141852 0.99334055 0.0048214435
0.47784409 -0.068286672 -0.0050355196 11506843 -0.13643432 -0.03673806 0.9899677 0.0027530557
0.48691967 -0.067645662 -0.0034597665 11572635 -0.13484648 -0.034532964 0.99026459 0.0028696244
0.49481329 -0.069056317 -0.0034127682 11441050 -0.14215891 -0.053600267 0.98839158 0.0019360941
0.50225294 -0.067280442 -0.0020190626 11441048 -0.10439798 -0.020269787 0.99432904 0.0030200118
0.51438272 -0.068493456 -0.00077098608 11506583 -0.08665996 -0.037063509 0.99554825 0.0022680149
0.46996075 -0.0580392 -0.0060466975 11572633 -0.1022058 -0.059009019 0.99301159 0.0045444896
0.4780485 -0.055240102 -0.0053067505 11440791 -0.12519659 -0.063874334 0.99007368 0.0040259259
0.4855763 -0.059103813 -0.002668485 11637913 -0.13751969 -0.058013141 0.98879868 0.0039500366
0.49766466 -0.058069777 -0.0017777532 11572122 -0.13265474 -0.032111615 0.99064201 0.0017346434
0.52150154 -0.059426237 -0.00062091649 11770007 -0.076933846 -0.02386108 0.99675065 0.0016107474
0.42699936 -0.048685379 -0.0098894984 11112083 -0.11624621 -0.039226472 0.99244559 0.0037316806
0.43351787 -0.04503537 -0.008126013 11177618 -0.13282624 -0.046409447 0.99005222 0.0044644754
0.44813493 -0.04607524 -0.0089066178 11045778 -0.12330921 -0.097304702 0.98758632 0.0042554587
0.45348227 -0.044132266 -0.0052309036 11243415 -0.11113467 -0.066714801 0.99156356 0.003761343
0.46617597 -0.048892904 -0.006203264 11441050 -0.11301526 -0.064609453 0.99149036 0.0042819618
0.4708775 -0.043150518 -0.0024398118 11375255 -0.10487764 -0.057037495 0.9928481 0.0047250884
0.48504889 -0.043697722 -0.0035704225 11375257 -0.099150948 -0.026670229 0.99471498 0.0038024778
0.49738184 -0.049190152 -0.0020834506 11637658 -0.11743993 -0.020907674 0.9928599 0.0022551101
0.52113217 -0.04859354 -0.00063805282 11704986 -0.094963774 -0.025219906 0.99516124 0.0040857363
0.43421984 -0.036748759 -0.0085676983 11112340 -0.13257121 -0.040658753 0.99033928 0.0048500998
0.44630992 -0.036591556 -0.0071837306 11177877 -0.11046703 -0.040605772 0.99304998 0.0054350905
0.4523266 -0.037772771 -0.0054837018 11309207 -0.11243801 -0.046038233 0.99259168 0.0049260398
0.46614757 -0.034701321 -0.005416587 11309722 -0.1019474 -0.038402542 0.9940483 0.0046044774
0.47783256 -0.033152685 -0.0033863559 11178134 -0.082391448 -0.036415372 0.99593455 0.0037062489
0.489512 -0.031910468 -0.0017897785 11309975 -0.07897269 -0.040116366 0.99606931 0.0035450857
0.49764392 -0.03799741 -0.002794534 11375512 -0.10125442 -0.0042833462 0.99485135 0.0029996899
0.50808764 -0.037875116 -0.00028784573 11309204 -0.11994208 0.020420365 0.99257088 0.0040109442
0.52125752 -0.035613447 -0.00087486207 11703955 -0.11680128 -0.013916026 0.99305785 0.0046804808
0.42628881 -0.025971116 -0.0098531991 11243155 -0.13463174 -0.017102642 0.99074811 0.0036864686
0.43031406 -0.026420644 -0.0075345933 11178134 -0.12004104 -0.017854402 0.99260837 0.0036013976
0.44635344 -0.027135821 -0.0063169152 11243413 -0.10624086 -0.017701566 0.99418288 0.0050616022
0.45357162 -0.024977032 -0.0035017282 11244184 -0.099071279 -0.015519497 0.99495935 0.0046965163
0.4975979 -0.026787335 -0.0024936646 11375255 -0.074391998 -0.01781966 0.9970699 0.0024810194
0.51989824 -0.029151695 -0.00045122206 11573143 -0.1201359 -0.0077151037 0.99272752 0.004352991
0.41305396 -0.016538309 -0.0098600537 10980496 -0.11790167 -0.03724055 0.9923268 0.0035004658
0.42632085 -0.01689308 -0.0090187043 11112341 -0.12753347 -0.025629306 0.99150312 0.0033540006
0.43615642 -0.018215643 -0.0077621788 11112084 -0.11983287 -0.0067387205 0.99277127 0.0046250531
0.44416207 -0.016877191 -0.0064839274 11177363 -0.14000675 0.00069413986 0.99015033 0.0044527566
0.45540288 -0.018016757 -0.0060341209 11243414 -0.11489631 -0.0086986395 0.99333948 0.0033416727
0.46691751 -0.016692709 -0.0053128451 11178137 -0.105919 -0.03384991 0.99379849 0.0036032021
0.47531044 -0.014250886 -0.0025914535 11243415 -0.082861826 -0.023834744 0.99627596 0.0040436438
0.48548096 -0.017801318 -0.0024900585 11243670 -0.091262214 -0.028130557 0.99542946 0.0034939847
0.49617144 -0.01454063 -0.0010872086 11244181 -0.088081419 -0.029784407 0.99566793 0.0039468841
0.52016038 -0.018360581 -0.00070823729 11375504 -0.11935251 -0.0064189932 0.99283123 0.0043255216
0.41699356 -0.0073129102 -0.0091284662 11046291 -0.10712519 -0.036328629 0.99358165 0.0012477097
0.43301818 -0.0082661239 -0.0083955228 11046294 -0.095095359 -0.0073779961 0.99544084 0.003218248
0.44481575 -0.0027447571 -0.0079840124 11111569 -0.12933029 0.0011344748 0.99160099 0.0028579612
0.45567134 -0.0082799774 -0.0060187727 11111829 -0.13264494 -0.0014603976 0.9911626 0.0036925895
0.46478903 -0.0063980427 -0.0036032349 11243929 -0.11545355 -0.014675705 0.99320441 0.0040617329
0.48792478 -0.0061212252 -0.0029464513 11177625 -0.082992099 -0.037197791 0.99585575 0.0048422399
0.49674413 -0.0089804307 -0.0028483421 11243929 -0.08571735 -0.022470634 0.99606609 0.0046763709
0.42946687 0.0069802911 -0.0088964254 11177361 -0.094878219 -0.0036501784 0.99548221 0.0026334657
0.43696544 0.0032914283 -0.0068425387 11046292 -0.095979616 -0.0087057045 0.99534523 0.0023858787
0.44933516 0.0014039385 -0.0060512275 11177877 -0.12515888 -0.008736643 0.99209821 0.0022427153
0.45883361 0.0022252062 -0.0062024146 11046549 -0.1486855 -0.028982382 0.98845983 0.0031713156
0.46672979 0.0048631453 -0.0034286529 11177878 -0.12638707 -0.014926076 0.99186873 0.003464862
0.47585094 0.0017011659 -0.0009432137 11111828 -0.1099515 -0.012136701 0.99386287 0.0033325064
0.48739183 0.0063773696 -0.0021898299 11178135 -0.089495696 -0.013383792 0.99589729 0.0042702276
0.49945346 0.0015669842 -0.0018965751 11309464 -0.080169559 -0.015597885 0.99665922 0.0043626539
0.41420081 0.016027084 -0.0093480498 11111315 -0.07956706 0.017390445 0.99667782 0.0026843948
0.42390096 0.013616038 -0.0082719922 11111570 -0.097847536 0.015899057 0.99507439 0.0029312549
0.43606144 0.011323452 -0.0067974627 11046035 -0.10228924 0.0012074459 0.99475402 0.0031788065
0.44634855 0.013195777 -0.0064731687 11243413 -0.12382552 0.00074467715 0.99230379 0.0038729955
0.45613042 0.013508445 -0.005168274 11046034 -0.13744278 -0.006777063 0.99048656 0.0036627294
0.46557367 0.011913325 -0.0037301928 11177879 -0.12107201 -0.013578434 0.99255085 0.0034766782
0.47606814 0.016988127 -0.0030054078 11177620 -0.084944651 0.0015089544 0.99638456 0.0030667107
0.49855956 0.014991994 -0.0017341971 11309208 -0.083354607 -0.0096282791 0.99647343 0.0035122563
0.40263194 0.023790242 -0.0099242777 10848909 -0.08354494 -0.0069568073 0.99647981 0.0017246478
0.41788986 0.025374489 -0.0093697608 10980753 -0.077212423 0.00092631392 0.99701428 0.0034165496
0.42784387 0.025900088 -0.0093477592 10914706 -0.084275126 0.0081114126 0.99640954 0.0034099347
0.43152094 0.021813249 -0.0081072226 11046289 -0.10096072 0.011680294 0.99482185 0.0031495378
0.45840931 0.024342153 -0.0042637363 11177877 -0.112666 -0.00532975 0.99361861 0.0026422758
0.46619406 0.022422852 -0.0034502 11177620 -0.12327007 0.010967633 0.99231261 0.0030277672
0.48626748 0.022854658 -0.0012551546 11243671 -0.10119464 0.0029516704 0.99486232 0.0028208089
0.51804692 0.024509074 -0.00052763522 11244182 -0.088241652 -0.0032773437 0.99609375 0.0018787885
0.43284684 0.032991257 -0.0083827674 11111571 -0.093857214 0.0032766962 0.99558032 0.0032214001
0.45274615 0.033144601 -0.0059769526 11177362 -0.13827093 0.00019342087 0.99039441 0.0032123164
0.46122986 0.034382526 -0.003572762 11243416 -0.1137046 0.0088125411 0.99347556 0.0027399957
0.47067067 0.032814406 -0.0034273118 11046290 -0.11023758 0.015226034 0.99378872 0.0030337046
0.48917964 0.03136168 -0.00256069 11178132 -0.11347234 0.0035909824 0.99353468 0.0019136131
0.52061319 0.031988807 -8.9094043e-05 10585481 -0.084606156 -0.00050253421 0.99641436 0.0030554025
0.41436252 0.040709842 -0.0084773451 11111572 -0.095812261 -0.0035185115 0.99539322 0.0029267329
0.42892131 0.046936482 -0.0091821402 11308435 -0.080888309 -0.028361486 0.99631959 0.0020621098
0.43288732 0.045785658 -0.007114172 11112087 -0.095911622 -0.014968084 0.99527735 0.0025337243
0.44612738 0.046291031 -0.0072319657 11177365 -0.13510659 0.0024597691 0.99082804 0.0028786676
0.45716262 0.045634195 -0.0046906322 11046292 -0.10963359 0.016012855 0.99384308 0.0024752524
0.47559232 0.042667266 -0.0039499849 10980497 -0.10161783 0.023191135 0.99455315 0.0019205905
0.48551866 0.042993132 -0.0012391061 11177877 -0.12442171 0.0047250069 0.9922182 0.0015065732
0.4957948 0.046666954 -0.0010901839 11244184 -0.081423908 0.013547703 0.99658751 0.0029562197
0.4235422 0.056715321 -0.0086827129 11045776 -0.098561399 -0.017770031 0.99497229 0.0018601181
0.43342558 0.053222746 -0.0074677318 11046544 -0.093903564 -0.024836153 0.9952715 0.0019168751
0.45497328 0.055456366 -0.0052446947 10914190 -0.10360616 0.0023956825 0.9946155 0.0017672614
0.46566275 0.053548362 -0.0043544918 11046290 -0.11265069 0.0098987157 0.99358541 0.0016424629
0.48489526 0.054370839 -0.0025677532 11177362 -0.10719348 0.00048503513 0.99423808 0.0016124492
0.49490803 0.052682601 -0.00082396716 11178390 -0.092587568 0.015335745 0.9955864 0.0026901443
0.51928669 0.054748803 -0.0014403462 11440534 -0.10191977 0.019771336 0.99459612 0.0030394439
0.42417639 0.061928198 -0.0084065646 10914706 -0.097340539 -0.0017047196 0.99524969 0.0018705777
0.43580621 0.065316774 -0.0074156374 10848912 -0.11075206 -0.01670797 0.99370766 0.0016973238
0.46267706 0.062720433 -0.0045970827 11176850 -0.095805421 -0.015984558 0.99527174 0.0011580347
0.4940609 0.062804043 -0.0006326288 11308692 -0.062491953 0.0035227062 0.99803931 0.0024055454
0.50807267 0.062652618 -0.00024552643 10981009 -0.077179514 0.029174799 0.99659032 0.0032972628
0.41521838 0.073361225 -0.0090897232 10783374 -0.10192415 0.010596877 0.99473578 0.001662183
0.42548507 0.076906979 -0.0079560205 10783118 -0.11112291 -0.001201194 0.99380594 0.001587372
0.46619403 0.071226731 -0.0041469932 10914704 -0.089590758 0.0066957213 0.99595618 0.001372555
0.47778261 0.071691282 -0.0027413219 11046033 -0.10963432 0.012480741 0.99389368 0.0013682623
0.48654079 0.0755734 -0.0021210983 11046034 -0.10134056 0.0032081103 0.99484664 0.0022283786
0.49510708 0.073299147 -0.0012000948 11111827 -0.082541548 0.0027311447 0.99658388 0.0026612962
0.50677854 0.071545511 -0.0013628751 10979727 -0.061469942 -0.010824716 0.99805021 0.0023777818
0.51979929 0.072857164 -7.5832009e-05 9927813 -0.095206164 0.0062049809 0.99543828 0.0031567104
0.418304 0.080472618 -0.0084084123 10587021 -0.11506825 -0.00042471944 0.99335754 0.001574715
0.42742261 0.084648304 -0.0089837015 10783374 -0.11819784 0.012749154 0.9929083 0.0012996383
0.43762973 0.08417175 -0.0071989149 10782864 -0.11530726 0.017661847 0.99317288 0.0015464639
0.44451129 0.083366744 -0.0050217211 10848915 -0.11734807 0.0031859763 0.99308574 0.0013108522
0.45630351 0.086305261 -0.0048914901 10848397 -0.10136233 0.0066746715 0.99482715 0.0016776464
0.46961397 0.085676424 -0.0037277639 10914703 -0.087891273 -0.0034518009 0.99612415 0.0015947821
0.50995499 0.081875287 -0.00095197558 11177363 -0.079950914 -0.0084770648 0.99676281 0.0016714557
0.42751014 0.093713038 -0.0091490746 10848398 -0.088704728 -0.016303679 0.99592453 0.0013625413
0.43521774 0.092867576 -0.007259652 10848654 -0.1139621 -0.001337084 0.9934842 0.0017747938
0.44702435 0.095640935 -0.0055112839 10848397 -0.12279711 -0.0063054888 0.99241179 0.0022027344
0.46041644 0.095980287 -0.0040877387 10849164 -0.099727571 0.0073306137 0.99498779 0.0020700241
0.47956872 0.094094731 -0.0038015991 11046030 -0.10574681 0.00023704581 0.99439311 0.001881209
0.48787978 0.092118077 -0.0029022545 11111570 -0.093761414 -0.0070568444 0.99556971 0.0019088506
0.4275201 0.10376511 -0.0077233464 10783118 -0.084776729 -0.014829017 0.99628967 0.0013434171
0.43873319 0.10173748 -0.0079501271 10848141 -0.11136344 -0.029011406 0.99335623 0.0021637715
0.47687048 0.10727486 -0.0028692931 10848397 -0.10704775 -0.0023938613 0.99425107 0.0025748916
0.48734728 0.10210193 -0.0028287619 11046034 -0.11728307 -0.014681906 0.99299002 0.0026701617
0.49301735 0.10149167 -0.00077451766 10849170 -0.10240293 -0.027382005 0.99436611 0.0026384192
0.50565326 0.10407819 -0.00065097213 10783374 -0.089602232 -0.025603708 0.9956485 0.0023991233
0.42822677 0.11278115 -0.0068253428 10783374 -0.10109119 -0.036587682 0.99420422 0.0011898677
0.44421884 0.11072709 -0.0066086948 10782606 -0.095889688 -0.025982909 0.99505281 0.0017300684
0.456844 0.11321981 -0.0048274025 10848654 -0.10107694 -0.014861992 0.99476767 0.0014067234
0.46893671 0.11291967 -0.0038264096 10848911 -0.077221125 -0.018721849 0.99683827 0.0017805581
0.47874555 0.11174674 -0.0022871494 10783117 -0.10271194 -0.0099748392 0.99466115 0.0028550066
0.48620352 0.11391135 -0.0025329441 11045776 -0.13890381 -0.019570528 0.99011248 0.0023228328
0.4961502 0.1130826 -0.00053864717 10914703 -0.11195238 -0.01474098 0.9936043 0.0028959829
0.40791178 0.12516679 -0.0089549571 10584967 -0.099584877 -0.012624019 0.99494898 0.0002437217
0.42565104 0.12184117 -0.0067092031 10716812 -0.093946502 -0.03418633 0.99499011 0.00051924674
0.43761265 0.1221887 -0.0064087659 10651274 -0.09110108 -0.033161297 0.99528944 0.0012416162
0.44713986 0.12340652 -0.0047367662 10782860 -0.083655283 -0.032793723 0.99595499 0.0015827378
0.466582 0.12262604 -0.0043492764 10848654 -0.08550258 -0.014207867 0.99623668 0.0018735337
0.47702438 0.12321052 -0.0031600147 10848653 -0.088352576 -0.026673101 0.99573207 0.0019549918
0.48565105 0.12181439 -0.0024215132 10849426 -0.13036484 -0.018750716 0.99128878 0.001521451
0.49084607 0.12125169 -0.000195086 10914959 -0.11015785 -0.012041145 0.99384117 0.0018910241
0.39875886 0.1343514 -0.0094429404 10519686 -0.096957341 -0.0068983342 0.99526465 0.00026561847
0.40663639 0.13276903 -0.0090395212 10519430 -0.099059314 -0.0048987451 0.99506944 0.00040762316
0.42803445 0.13110606 -0.0073070973 10651020 -0.099723339 -0.016531384 0.99487787 0.00061221846
0.4355315 0.1324477 -0.0055966079 10585479 -0.091290928 -0.008886138 0.99578464 0.00089766941
0.4458802 0.13330847 -0.0053218007 10651019 -0.086211175 -0.021369975 0.99604768 0.0016611363
0.45771819 0.13254723 -0.0034358203 10848396 -0.083820716 -0.022981018 0.99621582 0.0016242214
0.47059456 0.13099962 -0.0026836395 10848396 -0.10045016 -0.024222925 0.9946472 0.0020513046
0.48473302 0.13258293 -0.0022025704 10717585 -0.10657571 -0.0053199134 0.99429035 0.0022994122
0.49145809 0.13570872 -0.0006468147 10783376 -0.10640541 -0.0019517274 0.99432093 0.0019772088
0.50317651 0.13951907 -0.00094474852 10913676 -0.099845394 -0.0022721139 0.99500036 0.0029817359
0.40893751 0.14399567 -0.0084754974 10322309 -0.097489364 -0.01869591 0.99506098 0.00068022747
0.41612116 0.14332514 -0.0082029849 10519434 -0.10312342 -0.011467194 0.9946025 0.00057707424
0.42242411 0.14574158 -0.0074389428 10453638 -0.098217323 -0.014213733 0.99506354 0.00043312277
0.43868318 0.1434011 -0.0058631748 10585480 -0.090025425 -0.0028842641 0.99593532 0.00091549085
0.44777179 0.14562383 -0.0043271929 10519688 -0.10599489 -0.010228538 0.99431407 0.0019075631
0.46412981 0.14407599 -0.0035869479 10716556 -0.080530226 -0.02338003 0.9964779 0.0017853666
0.48086688 0.1416685 -0.0021668226 10717067 -0.09170413 -0.0087552462 0.99574786 0.0018396344
0.39806721 0.15384966 -0.0099499673 10256515 -0.11364407 -0.024845785 0.99321085 0.00072320766
0.40872753 0.15429799 -0.0085107535 10322565 -0.10322896 -0.030060036 0.99420333 0.0011588348
0.41706488 0.15273771 -0.0075068921 10453638 -0.10141921 -0.033329278 0.99428535 0.001151962
0.42794514 0.15390603 -0.0075703412 10388102 -0.094417438 -0.041964114 0.99464786 0.001017107
0.43874928 0.15383714 -0.0053750128 10453639 -0.091350377 -0.02125252 0.995592 0.0015715567
0.44911459 0.15354715 -0.0053664893 10519431 -0.1052383 -0.022742378 0.994187 0.0020496431
0.45856896 0.15583096 -0.004131183 10519178 -0.086515822 -0.017745938 0.99609244 0.0025308789
0.46867865 0.15178455 -0.0021702051 10585225 -0.072175704 -0.00970688 0.99734473 0.0018958988
0.48560897 0.15002738 -0.0028084069 10782603 -0.10100926 -0.01317081 0.9947983 0.0014407157
0.40307319 0.16558725 -0.0086400509 10124673 -0.10670885 -0.014708976 0.99418151 0.0020960928
0.41308165 0.16561249 -0.0070321485 10125443 -0.10770531 -0.021302855 0.9939546 0.003039419
0.4241302 0.1634652 -0.0065416247 10322052 -0.099098198 -0.012645676 0.99499732 0.002427385
0.4380551 0.16272743 -0.0051871687 10387589 -0.093526572 -0.027997918 0.99522305 0.0028217686
0.45225075 0.16377039 -0.0035306662 10453385 -0.073260702 -0.01972774 0.99711776 0.0036408473
0.46671167 0.16274965 -0.0025375038 10387849 -0.07670787 -0.0062203258 0.99703425 0.0025536385
0.48290452 0.16303198 -0.0018953383 10519690 -0.084631518 -0.0011520581 0.99641168 0.0014533384
0.49031159 0.16374341 -0.00059433281 10388362 -0.086354695 -0.014914682 0.99615282 0.0013959627
0.40589541 0.17258839 -0.0085908622 9993600 -0.12825096 -0.013388334 0.99165142 0.0032323769
0.41597828 0.17667568 -0.0085860789 10059651 -0.10022238 0.012535512 0.9948861 0.0037030773
