# .PCD v0.7 - Point Cloud Data file format
VERSION 0.7
FIELDS x y z rgb normal_x normal_y normal_z curvature
SIZE 4 4 4 4 4 4 4 4
TYPE F F F U F F F F
COUNT 1 1 1 1 1 1 1 1
WIDTH 508
HEIGHT 1
VIEWPOINT 0 0 0 1 0 0 0
POINTS 508
DATA ascii
0.48760962 0.0038197981 -0.017293841 11308956 -0.082669675 0.024655819 0.99627197 0.0020549593
0.49395818 0.0040330607 -0.015606821 11571863 -0.049872845 0.00219962 0.99875319 0.002275625
0.50062227 0.0021544925 -0.014107242 11374234 -0.051883519 -0.00081316382 0.99865282 0.0020337785
0.51261413 0.0060918801 -0.014531925 11637398 -0.032922748 -0.001453335 0.99945688 0.0016078611
0.52131617 0.0010046626 -0.013888732 11638687 -0.061959479 -0.00097824272 0.99807823 0.0016114844
0.54074341 0.0086754486 -0.011944786 11637660 -0.088355012 0.0061627333 0.99607003 0.00055600778
0.55149502 0.0092693064 -0.011384726 11637659 -0.076181024 0.0025186799 0.99709088 0.00057973759
0.56323189 0.0099494401 -0.011054099 11703711 -0.08049795 -0.00091833249 0.99675435 0.00044486779
0.43455696 0.018814757 -0.019195572 11308181 -0.1007048 0.0060465792 0.99489802 0.0019624727
0.44540176 0.017165901 -0.01893492 11308436 -0.076286949 0.011891176 0.99701506 0.0018537076
0.45402402 0.015840234 -0.018018141 11374485 -0.066440254 0.024660397 0.99748564 0.0026464981
0.46503907 0.016024869 -0.017638534 11440022 -0.052172095 0.024027195 0.99834901 0.0023830133
0.47419137 0.019409919 -0.016674317 11439511 -0.058648255 0.0027352616 0.99827498 0.0014963616
0.4909457 0.014434066 -0.015844688 11439767 -0.084724933 0.0078956597 0.99637312 0.0029098431
0.50118405 0.012896014 -0.01367411 11505561 -0.064240128 0.011409245 0.99786925 0.0024967017
0.5142858 0.018243767 -0.014510527 10256774 -0.037007302 0.026209828 0.99897122 0.0021903985
0.52027935 0.012785243 -0.014294818 11244181 -0.054573864 0.020004645 0.99830931 0.002003598
0.5327037 0.010549311 -0.013355762 11571096 -0.095921665 0.024206422 0.99509454 0.0010956065
0.54241896 0.017940706 -0.012083635 11309465 -0.093600124 0.0070315301 0.99558502 0.0013011998
0.55177867 0.018533116 -0.010939956 11506843 -0.081590414 -0.0023107715 0.99666327 0.00062110391
0.56446761 0.019478204 -0.010982737 11572891 -0.069667727 0.010026969 0.99751991 0.002234777
0.43540663 0.026845943 -0.019443572 11111058 -0.059225619 -0.0038964376 0.99823701 0.00093790516
0.44559768 0.028854392 -0.019306466 11308439 -0.061100513 0.0063231289 0.99811167 0.00060663407
0.45574015 0.025897587 -0.018208072 11373715 -0.057507962 0.013206527 0.9982577 0.0015308731
0.46690652 0.026128333 -0.017586514 11374485 -0.064406097 0.0054155514 0.99790913 0.0017468334
0.4847669 0.025507675 -0.016803242 11439765 -0.093807071 0.0027120186 0.99558675 0.0028921764
0.49828058 0.023547202 -0.016358227 11177621 -0.067887098 0.005816441 0.99767607 0.0025993811
0.50282449 0.023735922 -0.013729021 11636886 -0.046388805 0.011503141 0.99885732 0.0024518119
0.52192712 0.021775572 -0.01445815 10980246 -0.04344219 0.018256739 0.99888921 0.0023991142
0.53299677 0.021807367 -0.012782872 11505303 -0.10528915 0.017262237 0.99429178 0.0012195439
0.54397064 0.029498657 -0.012029469 11506072 -0.12185135 0.0067257322 0.99252558 0.0013715301
0.55347037 0.027968783 -0.011066929 11703453 -0.078598566 -0.0066878651 0.99688393 0.00056963816
0.56429434 0.028866027 -0.010349736 11703707 -0.070863634 0.00094569474 0.99748564 0.0024243111
0.58109742 0.028048405 -0.011937454 11966367 -0.05939588 0.0046641491 0.99822366 0.0026458742
0.42411041 0.037824489 -0.019923732 11242389 -0.07412409 -0.007047026 0.99722415 0.0015206197
0.43776137 0.035659708 -0.019006178 11110803 -0.051616758 0.0042848438 0.99865782 0.0013750832
0.44577095 0.036576711 -0.018860176 11242645 -0.046956901 0.0064864648 0.99887586 0.0013628455
0.45404369 0.037579786 -0.018733427 11242644 -0.056393813 0.0022904936 0.99840599 0.0010724772
0.466012 0.036970265 -0.018212631 11176594 -0.064136624 0.019350845 0.9977535 0.0020465371
0.47412887 0.035837695 -0.017819807 11177105 -0.072571822 0.0089661824 0.99732292 0.0023754991
0.48058653 0.034391589 -0.016513124 11439769 -0.079588741 -0.0015034862 0.99682665 0.0025958212
0.49403885 0.033982798 -0.015242316 11308180 -0.082249731 -0.0068114121 0.99658847 0.0057466608
0.50537765 0.032620709 -0.014327914 11571350 -0.033321146 -0.0084199859 0.9994092 0.0052558333
0.51932091 0.030760786 -0.014753088 9730688 -0.046295788 0.016297365 0.99879479 0.0026591315
0.52931291 0.036246166 -0.01519493 11573148 -0.099702917 0.0042886022 0.99500805 0.0015646596
0.53456074 0.035443716 -0.012610406 11374744 -0.10777833 0.0053663333 0.99416047 0.0013767248
0.5551641 0.037431043 -0.011193186 11506586 -0.077495314 -0.033123311 0.99644238 0.0021165453
0.57905161 0.037408896 -0.01057291 11703705 -0.051339839 0.00073513394 0.99868101 0.0036700794
0.59327745 0.034247451 -0.012449995 11966367 -0.11875235 -0.011678056 0.99285525 0.0016843007
0.42664373 0.047341891 -0.018542469 11176594 -0.06782034 0.0051286854 0.99768442 0.0017004048
0.4370437 0.047080204 -0.019976124 11176337 -0.031676769 0.0053360537 0.99948394 0.0016556036
0.44246987 0.047711633 -0.018522769 11176852 -0.045306742 -0.0032534227 0.99896783 0.0015781738
0.46262288 0.046978727 -0.017487548 11110547 -0.050641272 -0.0056015407 0.99870121 0.0015718199
0.47635257 0.048372597 -0.018077508 11308696 -0.081567705 -0.010175694 0.99661589 0.0017463194
0.48217994 0.042843446 -0.016725019 11373717 -0.12114576 -0.0096218549 0.9925881 0.0037877169
0.49380425 0.044138387 -0.015244961 11308180 -0.084342673 -0.01438546 0.996333 0.0060658804
0.50055218 0.046722539 -0.011209503 11242644 -0.057681262 -0.010808449 0.99827659 0.0061624222
0.51417994 0.042309351 -0.015318647 9861502 -0.011566225 -0.023236739 0.99966311 0.0056392075
0.52896237 0.046177946 -0.014416501 11506841 -0.096217394 0.0076881647 0.99533063 0.0016104038
0.53565884 0.04903629 -0.012239754 11374231 -0.10112783 0.0053592324 0.99485904 0.0016785938
0.54661977 0.041251879 -0.012426808 11637406 -0.12883972 -0.001561355 0.99166423 0.0016445564
0.55591911 0.046776194 -0.010938331 11703194 -0.10807095 0.0072031771 0.99411708 0.0031476533
0.58729005 0.04424759 -0.010390274 11768990 -0.090914018 -0.00095570588 0.99585831 0.0031383201
0.5912165 0.048266396 -0.011216581 11900061 -0.10848375 0.0083702216 0.99406302 0.00200747
0.44750693 0.05807215 -0.018275812 11110800 -0.081982374 -0.014573924 0.99652725 0.0012933674
0.45311815 0.053212024 -0.019383132 11044750 -0.064175487 -0.01299068 0.99785411 0.0014078603
0.46422642 0.05732131 -0.017409235 11111057 -0.04964814 -0.025972264 0.998429 0.0015425091
0.47731268 0.054635145 -0.018131539 11177362 -0.075129509 -0.01082902 0.99711502 0.0018527209
0.48196715 0.057117376 -0.015672192 11242903 -0.086619973 0.024387598 0.99594289 0.0051394696
0.49106264 0.052212652 -0.015756577 11570841 -0.11826287 -0.009256118 0.99293923 0.0066637672
0.5016312 0.053691018 -0.015964076 11242387 -0.04647243 -0.025532825 0.99859321 0.0058583692
0.523224 0.052057516 -0.013933197 9927295 -0.057626396 -0.021926235 0.99809742 0.0030878349
0.53855181 0.056231678 -0.013040543 11176848 -0.11095922 0.020423094 0.99361509 0.002965746
0.54642498 0.050316308 -0.011788085 11440283 -0.13515623 0.018498434 0.99065161 0.0028791565
0.55808717 0.056357734 -0.011253461 11506072 -0.10224724 0.012995142 0.99467415 0.0035660048
0.58089441 0.054437868 -0.010293424 11703198 -0.056919277 -0.0040225796 0.99837071 0.0045148269
0.42891991 0.060756687 -0.018834278 11045778 -0.06972871 0.018002762 0.99740356 0.0014525517
0.43981495 0.068435036 -0.019960746 11044752 -0.08145687 -0.010343757 0.99662322 0.0014051511
0.44756186 0.066936642 -0.018125579 11176593 -0.082573265 -0.012632284 0.99650496 0.0011971324
0.46216786 0.065285526 -0.017682031 11242643 -0.05831629 -0.010980327 0.99823785 0.0016543684
0.47843993 0.062966369 -0.0181292 11241872 -0.054130852 0.012144528 0.99845999 0.0027208063
0.48293269 0.06343288 -0.015721157 11374489 -0.08179605 -0.0044446662 0.99663919 0.0038762749
0.4919132 0.062740803 -0.015469477 11374487 -0.15266952 0.030027829 0.9878211 0.0065169558
0.50344098 0.062248945 -0.013889275 11242902 -0.058930177 -0.0045766477 0.99825162 0.007048558
0.52303308 0.06011932 -0.014149532 9203321 -0.045643836 -0.020755513 0.99874216 0.0033092399
0.5304122 0.064124241 -0.013927087 11506327 -0.086425997 0.0046595302 0.99624741 0.0010556565
0.54326177 0.06289731 -0.012983307 11373975 -0.11647949 0.025300136 0.99287081 0.0026598305
0.55780828 0.066460863 -0.012200907 11440020 -0.095119953 0.010811754 0.9954071 0.0036659453
0.43490252 0.075445607 -0.019781604 11045009 -0.097018152 -0.0061544641 0.99526364 0.0013836024
0.45039079 0.076697186 -0.018062949 10979728 -0.078335792 -0.017472705 0.9967739 0.00087968801
0.46067855 0.075839423 -0.017310336 11242389 -0.040022463 -0.016279867 0.99906617 0.0014019109
0.47058117 0.075636737 -0.016756162 10979473 -0.047260016 0.0151028 0.99876851 0.002684708
0.48670152 0.073449492 -0.01688575 11242900 -0.10889012 0.02007647 0.99385107 0.0056958366
0.4913702 0.072970301 -0.014537856 11177363 -0.13018522 0.023748554 0.99120528 0.0060045021
0.50570726 0.073286824 -0.014225215 11242899 -0.068196014 0.0049608145 0.99765956 0.0054682652
0.52135414 0.07157322 -0.014296249 8478055 -0.021572173 7.6044351e-05 0.9997673 0.0033683947
0.53202188 0.075486332 -0.01392182 11439764 -0.047811415 -0.014266865 0.9987545 0.0023519867
0.54600734 0.076143809 -0.012505273 11373717 -0.11110822 -0.00151639 0.99380714 0.0022255648
0.56104946 0.077687852 -0.011184171 11440279 -0.085995346 0.016954761 0.99615127 0.003704485
0.5840798 0.076525263 -0.010245726 11965854 -0.084076859 0.0043771756 0.99644971 0.0027576019
0.61178523 0.070671789 -0.011520058 11702945 -0.097965725 0.012207639 0.99511492 0.0022903697
0.43826982 0.087062947 -0.01993385 11044237 -0.10086265 -0.0076041631 0.99487132 0.0015992334
0.44883025 0.087099567 -0.017387167 11044756 -0.07907135 -0.0026104043 0.99686557 0.0014322962
0.46576169 0.086100996 -0.017716512 11176595 -0.026271544 -0.014808034 0.99954516 0.001671029
0.48532927 0.085197635 -0.016963134 10848912 -0.076951914 -0.0021434478 0.99703246 0.0038351358
0.49378604 0.085922711 -0.01483734 11177109 -0.11220655 -0.0088118799 0.99364591 0.0080367876
0.50564337 0.083816886 -0.013507783 11242902 -0.094253041 -0.0056136586 0.99553245 0.0076188119
0.52206802 0.080409728 -0.014055267 8741999 -0.022553772 -0.005561322 0.99973017 0.0025689125
0.53240573 0.088800438 -0.013254181 11045521 -0.074375845 -0.0022435712 0.99722779 0.0021022325
0.54911464 0.089346193 -0.010527954 11636121 -0.10438776 -0.0036941282 0.9945299 0.0015239619
0.55862707 0.088098451 -0.011226594 11439509 -0.089763969 -0.0098886676 0.99591404 0.001598621
0.57863134 0.087568991 -0.01001741 11506586 -0.03709048 0.014570348 0.99920577 0.0017323502
0.59540915 0.087068096 -0.010888726 11637400 -0.093947425 0.0038321391 0.99556983 0.0030260514
0.60973167 0.08489684 -0.010304093 11637400 -0.074836463 0.019109149 0.99701273 0.0039801295
0.4339515 0.093519032 -0.0192561 10913677 -0.091996044 -0.028241584 0.99535882 0.0029929886
0.44479096 0.096962765 -0.018242344 10978959 -0.080655217 -0.028324131 0.99633956 0.0023099913
0.4636761 0.096165471 -0.017452285 11307926 -0.032116085 -0.021231089 0.99925864 0.0016519541
0.47377634 0.095462307 -0.016335458 10913936 -0.061264247 -0.031356853 0.99762893 0.0023666483
0.48246026 0.090244643 -0.018284574 11044502 -0.063236177 -0.010148872 0.99794698 0.0031653664
0.49679857 0.094960049 -0.015678659 11176849 -0.11195192 -0.033670273 0.99314308 0.0056299367
0.50521684 0.092410438 -0.015122131 11176592 -0.069913328 -0.010071136 0.99750221 0.0060383808
0.51586699 0.092412837 -0.01529105 11440534 -0.03360486 -0.0018214807 0.99943358 0.0054669529
0.52108341 0.090997905 -0.012939855 10123645 -0.012042522 -0.014726151 0.99981904 0.0042237747
0.53548425 0.098365337 -0.014008507 11373460 -0.077565372 0.0068157017 0.99696404 0.0020617743
0.54356062 0.095339715 -0.012771666 10979474 -0.094657019 0.00088697748 0.99550956 0.0017968407
0.55109042 0.096590132 -0.010917738 11177110 -0.10708052 0.011095397 0.99418849 0.0020596823
0.56130362 0.096171379 -0.010167763 11177108 -0.070771284 0.013669932 0.99739891 0.0016345592
0.5741213 0.098610632 -0.010144368 11308434 -0.049141556 0.0095897652 0.9987458 0.0023897963
0.59763741 0.092313945 -0.011362463 11440533 -0.066985331 0.016528832 0.99761707 0.0044607534
0.44557989 0.10649784 -0.018197417 10847630 -0.075706989 -0.035969932 0.99648112 0.0024270306
0.45694512 0.10058301 -0.018091321 10717327 -0.074265987 -0.023650797 0.99695796 0.0014061165
0.46432191 0.1041593 -0.017234296 11111058 -0.046008676 -0.025785642 0.99860817 0.0012365176
0.47398278 0.10429265 -0.01614289 10914193 -0.063710332 -0.034029398 0.99738812 0.0017908298
0.48395056 0.10451545 -0.015754364 11111318 -0.072181143 -0.042453524 0.99648762 0.0031938048
0.49888331 0.10381301 -0.016089931 11045265 -0.081361234 -0.029597629 0.99624515 0.0041701533
0.50642383 0.10294703 -0.012636818 11111318 -0.045433607 0.004570771 0.99895692 0.0051922621
0.5131349 0.10024352 -0.013535321 11440023 -0.019287616 0.012356676 0.99973762 0.0056135515
0.52488214 0.10385516 -0.013829216 10782351 -0.018394791 0.032508373 0.99930221 0.0038572452
0.54513901 0.10915447 -0.012594357 11044754 -0.095565289 2.5063753e-05 0.9954232 0.00220815
0.55945933 0.10517938 -0.011372283 11242135 -0.077444702 0.011865646 0.99692607 0.0023379927
0.56452602 0.10154828 -0.011173949 11111315 -0.069598615 0.0010378622 0.99757457 0.0021661445
0.58611315 0.10883404 -0.012024224 11242641 -0.10194222 -0.00089768326 0.99478996 0.0028719797
0.59119785 0.10682773 -0.011268154 11439769 -0.067426361 0.016693657 0.99758464 0.0034140649
0.63141894 0.10902178 -0.010589868 11374740 -0.083613709 0.0012487285 0.99649751 0.006621866
0.41077161 0.11070503 -0.019882843 10847371 -0.068172336 -0.021702981 0.99743754 0.0020474636
0.42523065 0.11716824 -0.018857757 10781324 -0.066310324 -0.041593559 0.99693179 0.0023812356
0.4348684 0.11409336 -0.018284 10846857 -0.075519972 -0.04684864 0.99604315 0.0027775597
0.44200951 0.11779671 -0.017642722 10847114 -0.075753547 -0.037663467 0.99641502 0.0027682434
0.45163187 0.11844561 -0.01733239 10847373 -0.061355442 -0.018758669 0.99793971 0.0015796144
0.46621844 0.11644983 -0.017363295 10913935 -0.055295616 -0.015197415 0.99835438 0.00071909506
0.47400805 0.1152298 -0.015785232 10913165 -0.07187292 -0.014384788 0.9973101 0.00054029736
0.48508015 0.11193623 -0.015813693 10979472 -0.071531057 -0.020294374 0.9972319 0.0022081691
0.49693418 0.11358955 -0.014517948 11045009 -0.081991367 -0.016464259 0.99649704 0.0029872502
0.5060131 0.11359658 -0.014116481 11045266 -0.013314278 0.010258139 0.9998588 0.0057629696
0.51606637 0.11381227 -0.014006481 11374487 0.0077248802 0.03293005 0.9994278 0.0063028466
0.52205932 0.11984053 -0.016365677 11111056 0.017030656 0.05274706 0.99846268 0.0060223183
0.53780848 0.11000968 -0.014300078 10913679 -0.10497928 0.0058183451 0.99445742 0.0017743412
0.54682267 0.11854918 -0.012736991 11045012 -0.090636164 -0.0052527376 0.99587023 0.0021293
0.55367208 0.11420316 -0.010926858 11177109 -0.089376763 -0.0049106297 0.99598581 0.0023156863
0.56737572 0.11381502 -0.011608005 11307668 -0.074304312 0.0098465187 0.99718696 0.0024792589
0.59354961 0.11275619 -0.010466196 11242900 -0.094295509 0.00040192541 0.9955442 0.0034152498
0.6170283 0.11092843 -0.01143463 11440021 -0.069493659 -0.002179716 0.99758005 0.0045187925
0.41093826 0.12030956 -0.01987873 10649736 -0.085596442 -0.010537326 0.99627423 0.0023762414
0.42534581 0.12826382 -0.01860176 10715274 -0.086536825 -0.025630075 0.99591893 0.002566692
0.44173616 0.12796804 -0.018479183 10715787 -0.049552083 -0.014100041 0.99867201 0.0015163082
0.45278993 0.12626286 -0.016300187 10716301 -0.048865113 -0.012464234 0.99872762 0.0011425096
0.46718198 0.12651233 -0.017166272 10847119 -0.048074067 -0.010135558 0.99879235 0.00067592046
0.47542322 0.12587054 -0.015404552 10847115 -0.061702996 -0.013028026 0.99800962 0.0010607911
0.48233593 0.12243528 -0.016057819 11044502 -0.080003381 -0.01564325 0.99667186 0.00094951701
0.49442691 0.12439127 -0.014911637 10979218 -0.051800754 -0.011330032 0.99859321 0.0028239083
0.50482833 0.12159072 -0.013042793 10913939 0.00039362907 0.041673187 0.99913126 0.0057489625
0.52386361 0.12517977 -0.015224437 10980244 -0.051113755 0.013928536 0.99859571 0.00633532
0.53672308 0.12511529 -0.012872979 10913425 -0.14713109 -0.00061056978 0.98911685 0.0038710758
0.54614073 0.12727717 -0.011900738 11111318 -0.13059519 0.0092455419 0.99139267 0.0027822258
0.55984014 0.1281734 -0.010972455 11111315 -0.064804375 -0.0077576786 0.99786788 0.0018731955
0.56680745 0.12978867 -0.010403827 11110545 -0.072278857 -0.015416749 0.99726534 0.0018760613
0.58005524 0.12593248 -0.010907367 11176598 -0.061700612 -0.025718009 0.99776334 0.0026637332
0.60059243 0.12638265 -0.010848179 11242642 -0.10163303 -0.0024572818 0.99481899 0.0037414758
0.40970963 0.13047102 -0.019426778 10715785 -0.074077457 -0.029117778 0.99682736 0.0018619122
0.41058797 0.13951805 -0.019267097 10518405 -0.061421424 -0.020540055 0.99790055 0.0016190379
0.42538053 0.13851199 -0.01876995 10518923 -0.0701444 -0.025825987 0.99720252 0.0019304977
0.4350054 0.13977362 -0.016515061 10321290 -0.066155471 -0.013906659 0.99771243 0.0016076856
0.4432748 0.13643488 -0.018428341 10518411 -0.056914978 -0.018533153 0.99820697 0.0014522136
0.4573257 0.13651741 -0.017097667 10650507 -0.052785747 -0.026272623 0.9982602 0.0020667263
0.46586418 0.13676587 -0.018051609 10518921 -0.085442401 -0.021480661 0.99611151 0.0027377601
0.47487277 0.13470849 -0.017531067 10584714 -0.079006322 -0.025115727 0.99655771 0.0025491957
0.48306054 0.13367741 -0.01543472 10716560 -0.084574498 -0.021067627 0.99619442 0.0020261644
0.50363743 0.13190767 -0.014145955 10716303 0.0077051935 0.00014463959 0.99997032 0.0027858438
0.52565992 0.13601193 -0.016976163 10452620 -0.092993073 0.0014595938 0.99566573 0.0087772887
0.53042066 0.13255447 -0.014493272 11046550 -0.09630847 -0.0086615719 0.99531388 0.0075248759
0.54735267 0.13655601 -0.011847109 10848146 -0.11246257 0.0042333477 0.99364692 0.0021901496
0.56426978 0.136875 -0.010605812 11045007 -0.07039506 -0.013737582 0.99742466 0.0015474339
0.57575053 0.13638288 -0.012400627 11111057 -0.089410305 -0.01463154 0.99588746 0.0026604219
0.60492539 0.13476428 -0.011846051 11242645 -0.070085816 0.01217307 0.99746668 0.0044946671
0.42311567 0.14797057 -0.0193097 10518409 -0.066540569 -0.0028529838 0.99777967 0.0019869711
0.436849 0.14598939 -0.017085388 10321030 -0.059193794 -0.027794966 0.99785948 0.0016611773
0.44535372 0.14893131 -0.018308952 10518156 -0.065297909 -0.037433345 0.99716347 0.0023532156
0.45599145 0.14640401 -0.016585007 10584460 -0.041148867 -0.049725719 0.99791485 0.0026257487
0.46817857 0.14630601 -0.01631704 10452875 -0.069484264 -0.044634819 0.996584 0.0028608849
0.47663116 0.14651963 -0.017669281 10452619 -0.078009114 -0.02874071 0.99653828 0.0032031795
0.48635602 0.14356543 -0.014980326 10650252 -0.063050322 -0.016366668 0.99787617 0.0022774932
0.50790614 0.14432068 -0.014565468 10519181 0.035587341 -0.018174428 0.9992013 0.003219258
0.52024138 0.14277278 -0.014057919 9596791 -0.040309906 -0.044063434 0.9982152 0.0068855942
0.53425121 0.14105676 -0.013216279 10717072 -0.15988402 -0.0012069495 0.98713511 0.0050568706
0.55064958 0.14875163 -0.012511536 10847885 -0.09999001 -0.024582256 0.99468476 0.0017002343
0.5661031 0.14288266 -0.013751954 10979220 -0.074111268 -0.024448633 0.99695021 0.0023733743
0.57859755 0.14412585 -0.0130018 10913686 -0.094454199 -0.019098239 0.99534607 0.0030262663
0.58721638 0.14405909 -0.010875806 11045779 -0.10396615 -0.050372425 0.99330449 0.0027041512
0.60158288 0.14330126 -0.010444045 11045012 -0.080461904 0.00067635626 0.99675745 0.0037526668
0.40278769 0.15255947 -0.019705907 10189956 -0.065690219 -0.020885957 0.99762148 0.0014865428
0.41272897 0.15069814 -0.018660143 10452874 -0.064940006 -0.023067202 0.99762255 0.0016276023
0.42374858 0.15802763 -0.01795651 10255494 -0.074338771 0.0037128967 0.99722618 0.0018684729
0.43511629 0.15380555 -0.017676048 10255493 -0.074084498 -0.01235072 0.99717546 0.0023304275
0.44510257 0.15793283 -0.016467229 10386824 -0.085066557 -0.031473249 0.99587816 0.0034906596
0.45647949 0.15726726 -0.016518101 10387080 -0.045443807 -0.057082377 0.99733472 0.0020105101
0.46428195 0.15418206 -0.015610297 10387337 -0.064909577 -0.045213301 0.99686629 0.0023235185
0.47783092 0.15522939 -0.01613 10518412 -0.047966719 -0.022936199 0.99858564 0.0036143467
0.48542368 0.15424669 -0.015319996 10584462 -0.050996453 -0.020346288 0.99849153 0.0038442824
0.49228734 0.15730298 -0.013789609 10518409 -0.064916126 -0.012389947 0.99781376 0.0033715451
0.5031687 0.15685864 -0.014643371 10452613 -0.027578088 -0.026814742 0.99925995 0.0048456672
0.52774018 0.15608265 -0.016639128 9071734 -0.059480727 -0.06628973 0.99602598 0.004868425
0.53428894 0.15385629 -0.013236965 10782094 -0.10775727 -0.042091481 0.99328583 0.0053379894
0.55062425 0.15988311 -0.011809185 10847892 -0.096688449 -0.043794572 0.99435079 0.0020508198
0.56305194 0.15645537 -0.010592744 10979475 -0.070901848 -0.026286516 0.99713689 0.0021196371
0.57362181 0.15301067 -0.013400555 10913423 -0.10665108 -0.058681652 0.99256337 0.0045302259
0.5876317 0.1511535 -0.010706335 11243155 -0.10027086 -0.05069872 0.99366766 0.0027612923
0.6039651 0.15117802 -0.010854915 10848915 -0.083656557 -0.02488075 0.99618399 0.0033296475
0.40441748 0.16183233 -0.019988641 10058112 -0.080724299 -0.00040643662 0.99673641 0.0018268051
0.41315699 0.16492726 -0.018878862 10189702 -0.058905993 -0.0052621178 0.99824971 0.001784968
0.42562667 0.16871686 -0.018602923 9993349 -0.079545677 -0.0166869 0.99669152 0.0026792684
0.43627205 0.16621391 -0.018134305 10189955 -0.07711944 -0.012661194 0.99694139 0.0024848597
0.44556728 0.16738389 -0.016047522 10255235 -0.10772097 -0.018324789 0.99401224 0.0029804325
0.45742059 0.1677812 -0.015837058 10387079 -0.066552319 -0.014696357 0.9976747 0.0025934028
0.46544725 0.16378286 -0.015374236 10321284 -0.069260806 -0.026451156 0.99724782 0.0023023153
0.47692534 0.16515489 -0.016310953 10453125 -0.059043851 -0.015315348 0.99813789 0.0037774541
0.48640421 0.16580093 -0.016254082 10321542 -0.063450642 -0.017620627 0.99782938 0.0038884594
0.49540049 0.16455103 -0.014629483 10584204 -0.065557271 -0.0236517 0.99756843 0.0034484975
0.50673074 0.16603799 -0.012988697 10321543 -0.023694523 -0.048651453 0.99853474 0.0048870817
0.51930761 0.16150625 -0.012425467 8284022 -0.026060969 -0.063720286 0.9976275 0.0047146683
0.53915507 0.16092788 -0.011693329 10518666 -0.095545143 -0.044602789 0.99442536 0.0038445275
0.54945809 0.16833961 -0.010780945 10847633 -0.083738297 -0.026329346 0.99613988 0.002152221
0.56627119 0.16654876 -0.01048182 10781840 -0.056302033 -0.025036823 0.9980998 0.0044793291
0.57884997 0.16479301 -0.01219365 10848145 -0.10670435 -0.059738863 0.99249458 0.0044707661
0.58527172 0.16743715 -0.010529578 10848915 -0.073217504 -0.028736573 0.99690193 0.0030297693
0.62057114 0.16322935 -0.010331303 10913937 -0.092949435 -0.038914606 0.99491012 0.0038167464
0.38473022 0.17357734 -0.019995317 9992579 -0.095823139 0.022258062 0.99514949 0.0015155982
0.40121886 0.1707864 -0.019389823 9927038 -0.093650192 0.017709304 0.9954477 0.002469908
0.41394609 0.17743354 -0.01840727 10058632 -0.06729129 0.0085882209 0.99769646 0.0020292553
0.42545155 0.17959851 -0.018037543 9993091 -0.076390028 0.007646773 0.99704874 0.0026703987
0.43659288 0.17927952 -0.018789783 10058624 -0.084741212 0.01198322 0.99633098 0.0020486277
0.44296873 0.17664444 -0.016106814 10123905 -0.097548738 0.010232521 0.9951781 0.0018620191
0.45671591 0.17826974 -0.015466049 10059144 -0.09438163 0.00745463 0.99550819 0.0027152239
0.46836439 0.17111488 -0.017285794 10123907 -0.066605091 0.026746478 0.99742085 0.0045973845
0.47456777 0.17572957 -0.015316159 10190212 -0.040199511 -0.03217129 0.99867362 0.0033327201
0.48649102 0.1738677 -0.014655247 10321801 -0.071707837 -0.041337389 0.99656868 0.0038073412
0.49509674 0.17434794 -0.015017085 10321544 -0.065236233 -0.018775906 0.99769318 0.0036037902
0.50328082 0.17331418 -0.013614491 10256263 -0.049723804 -0.052367542 0.99738926 0.0047556106
0.51040226 0.17802596 -0.015264392 10255234 -0.034919623 0.0098202908 0.99934191 0.0016687403
0.52722085 0.17468162 -0.013912533 9467262 -0.050743856 -0.013353219 0.99862242 0.0027660578
0.53561163 0.1702376 -0.012792669 10584717 -0.094324097 -0.046089023 0.99447411 0.0040642582
0.54182744 0.17918366 -0.01239115 10387081 -0.073184252 -0.032807931 0.99677867 0.002154063
0.55300575 0.17854959 -0.012058958 10649993 -0.063158102 -0.030980822 0.99752253 0.0019898964
0.57577133 0.17547512 -0.011724733 10782349 -0.084587157 -0.034823906 0.99580735 0.004700392
0.41759068 0.18968368 -0.019639999 10058882 -0.075239956 0.019877587 0.99696732 0.0016604709
0.42548159 0.18820956 -0.017222032 9993090 -0.077821046 0.010080099 0.99691635 0.0023034886
0.44483194 0.18694843 -0.016822428 9927296 -0.084374845 -0.00069897249 0.99643385 0.0021542544
0.45830154 0.18455985 -0.017358363 9992833 -0.092636444 0.011714144 0.9956311 0.0027697771
0.46633005 0.18374133 -0.016264256 9993347 -0.0586196 0.0078235557 0.99824977 0.0033656303
0.47695842 0.18346828 -0.015290737 10255492 -0.079534471 -0.023195349 0.99656218 0.0037318952
0.48732209 0.18415421 -0.014374733 10189956 -0.042518947 -0.050434839 0.99782187 0.0024362346
0.49218011 0.18353488 -0.012224779 10321288 -0.091164112 -0.043965504 0.99486488 0.0037249529
0.50707507 0.18580391 -0.012251981 10387337 -0.031264305 -0.029907508 0.99906361 0.0041580135
0.5185622 0.18185084 -0.013625503 9597823 -0.030061275 -0.043349914 0.99860764 0.0037569874
0.52662295 0.18693843 -0.014966145 9794942 -0.057659596 -0.00139191 0.99833536 0.0015589552
0.53247648 0.18077752 -0.012351543 10256776 -0.060076445 -0.025712509 0.99786258 0.0022882589
0.54340696 0.18846279 -0.012542084 10321544 -0.084753476 -0.039898932 0.99560279 0.0032849715
0.55498648 0.18728419 -0.011682888 10518408 -0.063783146 -0.042909704 0.99704087 0.0031099494
0.56234419 0.18808158 -0.010054186 10453133 -0.058135211 0.0084467717 0.99827302 0.0061415392
0.58141077 0.18400247 -0.012206465 10584203 -0.074886747 -0.027408054 0.99681532 0.0060722423
0.6086129 0.18134513 -0.011032879 10650764 -0.053325072 -0.011627797 0.99850959 0.0057915542
0.43530717 0.19567835 -0.018275207 9927808 -0.089693308 -0.0005355684 0.99596936 0.0019921872
0.44392261 0.19849288 -0.017215475 9795970 -0.093655229 0.01022606 0.99555224 0.0020247072
0.46800852 0.19629773 -0.016879652 10058369 -0.074494168 0.0082722334 0.99718714 0.0038494193
0.47451502 0.19394058 -0.014773004 10124419 -0.091928251 0.013526374 0.99567384 0.0039649652
0.48528683 0.19413127 -0.015374277 10189954 -0.07463643 0.0035338011 0.99720454 0.0043047601
0.49184448 0.19594201 -0.013625555 9992068 -0.065270253 0.0038008457 0.99786043 0.0036391113
0.50324214 0.1916707 -0.012388691 10321538 -0.026552113 -0.022868374 0.99938583 0.0041720616
0.52395368 0.19424695 -0.013860859 9202550 -0.054714192 -0.026174441 0.99815899 0.0033592843
0.53094745 0.1932157 -0.012839831 10123909 -0.070601329 -0.027301379 0.99713099 0.0032483791
0.54526496 0.19790116 -0.012752585 10320771 -0.084616862 -0.020305188 0.99620664 0.0034874515
0.55092198 0.19292477 -0.011121601 10517891 -0.078806356 -0.020319968 0.99668282 0.0019052667
0.56258833 0.19842552 -0.011093497 10321285 -0.065100074 -0.035457123 0.99724859 0.0051056407
0.58160323 0.19546713 -0.011775374 10321028 -0.085287474 -0.0091755548 0.99631417 0.0064413799
0.44850308 0.20372443 -0.015056506 9862018 -0.088830203 0.02339159 0.99577212 0.0023812328
0.4595452 0.20589083 -0.015036806 9992576 -0.090167284 0.027338497 0.99555141 0.0017593739
0.46617627 0.20369104 -0.015750989 9730943 -0.07079652 0.021447737 0.99726021 0.0018301475
0.47400045 0.2057813 -0.01568242 9861506 -0.08948946 0.031503476 0.99548948 0.0039409962
0.48835409 0.20442411 -0.013522208 10189955 -0.084933452 0.035488151 0.99575442 0.0028858897
0.49558085 0.20308422 -0.012576446 10189956 -0.073221296 0.016885929 0.99717283 0.0035697715
0.5059917 0.20310271 -0.012947187 10124164 -0.02332598 0.012704771 0.9996472 0.0037253473
0.51203066 0.20507723 -0.010980025 10125700 -0.029948294 0.02357474 0.99927348 0.0039459821
0.52528387 0.20472205 -0.013470441 9729660 -0.067826651 -0.017346492 0.99754632 0.0019970613
0.53456593 0.20094673 -0.012008205 10058878 -0.081600815 -0.0032686144 0.99665976 0.0056565586
0.54296732 0.20811665 -0.010406494 10123911 -0.097477287 0.008345563 0.99520278 0.0049810107
0.56673324 0.2067498 -0.01097282 10254723 -0.054035101 -0.046298984 0.99746507 0.0043774024
0.59278095 0.20634963 -0.010001808 10321028 -0.077270083 -0.0091746273 0.99696803 0.0071276124
0.46885684 0.21455877 -0.016397461 7624539 -0.072339237 0.049786653 0.99613678 0.0028420109
0.47508696 0.21504055 -0.015138909 10389127 -0.086130507 0.058368526 0.99457264 0.0025582176
0.48035601 0.21590914 -0.014773205 8019047 -0.086084612 0.058344577 0.994578 0.0025470592
0.49484977 0.21431519 -0.012999709 8479091 -0.083217151 0.034097642 0.99594796 0.0037418136
0.5058974 0.21323647 -0.012235716 7031380 -0.02835995 0.0046879351 0.99958682 0.0038097946
0.51748103 0.21589248 -0.012824401 6439505 -0.034673244 6.1348081e-05 0.99939871 0.0030337656
0.52424812 0.21520771 -0.01284977 7426913 -0.07175988 -0.01343692 0.99733138 0.0016865868
0.53354388 0.21333581 -0.012931056 9268601 -0.095479794 -0.0098498631 0.99538261 0.0027798286
0.54531872 0.21839327 -0.011744104 9138045 -0.098575614 -0.027925646 0.99473768 0.003593015
0.55591154 0.21960744 -0.010379896 9466244 -0.073372096 -0.048555061 0.996122 0.0035637335
0.57123762 0.21426053 -0.012368828 9729654 -0.081764922 -0.057466425 0.99499351 0.0078695016
0.48625243 0.22582886 -0.015575469 9992830 -0.12369181 0.030323539 0.99185729 0.0030788609
0.49142808 0.22373538 -0.01374501 10123903 -0.12352312 0.030183606 0.99188262 0.0031062607
0.50349808 0.22258577 -0.01278685 10190727 -0.06561783 0.0076841768 0.99781525 0.0053016297
0.5187819 0.22066548 -0.013122082 11047582 -0.024226964 -0.023970883 0.99941909 0.0024692228
0.52489048 0.22705059 -0.012382269 9270144 -0.061560325 -0.033860721 0.99752885 0.0018912284
0.53360236 0.22425586 -0.012365021 9861255 -0.099347301 -0.022433674 0.99479991 0.0015494854
0.54341263 0.22657926 -0.011645585 9991809 -0.11887081 -0.0061961561 0.99289042 0.0022282756
0.55679798 0.22808766 -0.011599153 10321032 -0.098140925 -0.033266351 0.99461645 0.0052564419
0.56364071 0.22580099 -0.010888577 10716295 -0.070817411 -0.011841333 0.99741906 0.0073898863
0.58127785 0.22262029 -0.010497868 11770528 -0.05517666 -0.043392934 0.99753326 0.0088383956
0.49147397 0.23383509 -0.014227033 9927548 -0.10826668 0.024387971 0.99382269 0.0033961427
0.50276655 0.23329955 -0.011731423 9795963 -0.07420899 -0.007372675 0.99721545 0.0040536178
0.51673663 0.23096597 -0.013058364 9927296 -0.057366036 -0.029586654 0.99791467 0.0027093431
0.52231443 0.2395661 -0.015150309 8545899 -0.10370231 -0.0079755485 0.99457639 0.0010004179
0.53487766 0.23430321 -0.011479922 10058626 -0.09300001 -0.026777487 0.99530602 0.0010740947
0.54436982 0.23619145 -0.010476112 9926783 -0.10747512 0.0020108467 0.99420577 0.0035364656
0.55535626 0.23606659 -0.010749802 10058364 -0.073714584 -0.01749252 0.99712598 0.0048648654
0.58209515 0.23658098 -0.01016438 10058881 -0.076328568 -0.010818047 0.99702406 0.0073209018
0.49356782 0.24460022 -0.013400838 9861247 -0.073662676 0.010306777 0.99722999 0.0042573032
0.50526524 0.2416555 -0.012381062 9729911 -0.07218875 -0.0083182165 0.9973563 0.00323306
0.51835412 0.24935991 -0.011056021 9138027 -0.077259064 -0.024619833 0.99670702 0.0020965002
0.52460194 0.24459168 -0.013153419 9204343 -0.076056622 -0.010996866 0.99704283 0.0018880118
0.53314358 0.24511766 -0.011707634 9993088 -0.099555582 0.00053193048 0.99503189 0.0010349189
0.55821949 0.24664646 -0.010531627 9992575 -0.088477924 0.011140388 0.99601585 0.0042828461
0.58236754 0.24123456 -0.010053217 10124160 -0.093234122 -0.0024435613 0.99564123 0.0065787672
0.49661571 0.25422016 -0.014262602 9861758 -0.08051312 -0.016003374 0.99662507 0.0026179266
0.52500516 0.25813234 -0.014862418 8611175 -0.10307159 0.0049074781 0.99466187 0.0008708791
0.5517087 0.25352663 -0.011401542 9861245 -0.090522096 -0.010887744 0.99583495 0.0046840962
0.56531864 0.25442919 -0.010194778 9664120 -0.11310703 -0.011801433 0.99351275 0.0047496669
0.52862412 0.26394787 -0.013709173 7558236 -0.10305236 0.0049215741 0.99466377 0.0008689487
0.53958887 0.26312116 -0.010312706 9598846 -0.085701883 -0.019195486 0.99613595 0.0039612339
0.85178053 -0.56475431 -0.0018178076 12296112 -0.09459801 -0.018281687 0.99534768 0.0043904455
0.79194725 -0.55878949 -0.00079323351 12033195 -0.094570905 -0.0056884922 0.99550194 0.0021935306
0.76954931 -0.54550338 -0.0013891906 11967404 -0.073395245 -0.0088178618 0.99726391 0.00066406879
0.81786025 -0.54858416 -0.0018927902 12098982 -0.075348459 -0.017892895 0.99699676 0.0028591049
0.84476966 -0.54986268 -2.142787e-05 12427693 -0.092724465 0.022247652 0.99544322 0.005818286
0.79410118 -0.5321281 -6.6176057e-05 12230316 -0.046818674 0.016546216 0.99876636 0.0034746609
0.81321883 -0.53544128 -0.00054733455 12098729 -0.078175597 -0.018365543 0.99677038 0.0024200573
0.72966516 -0.52192062 -0.0030079633 11901603 -0.080163807 0.031600717 0.99628073 0.0014799923
0.7475087 -0.52906454 -0.0015795678 11967400 -0.070536353 0.0092151733 0.99746662 0.00091725483
0.76953012 -0.52163512 -0.00024570525 12361132 -0.066971272 -0.0023077205 0.99775225 0.00065665029
0.78918201 -0.52855992 -0.0023431629 12163752 -0.089066766 -0.0099223154 0.99597621 0.0013626837
0.82419139 -0.52446032 -0.0022542626 12296359 -0.058280692 0.0034282319 0.99829435 0.0025480615
0.73561722 -0.5142163 -0.0042323545 11836068 -0.087061323 0.029320994 0.99577135 0.0014430974
0.75223261 -0.51868641 -0.0023107678 12032679 -0.089843489 0.013356634 0.99586636 0.00091699121
0.77271461 -0.51926243 -0.0052490085 11900837 -0.09235885 -0.0096123228 0.99567944 0.0014040568
0.78690267 -0.51716071 -0.0014858246 12032935 -0.086949028 -0.0069414512 0.99618858 0.001423767
0.80652195 -0.51127756 -0.0021268725 12164785 -0.11242527 0.043724217 0.99269772 0.0051107234
0.81811404 -0.51063973 -0.00061132014 12361898 -0.047897995 -0.017796278 0.9986937 0.0013354865
0.85579401 -0.51302999 -0.00076234341 12559028 -0.080055453 -0.0058588986 0.99677318 0.0032888788
0.7126466 -0.50554729 -0.0039377362 11639207 -0.069853157 0.0064652935 0.99753636 0.0019802214
0.75143957 -0.50603151 -0.0041415617 12098213 -0.071773253 0.011141642 0.99735874 0.0013448042
0.77367258 -0.5058046 -0.001979823 12098727 -0.050995544 0.007759368 0.99866873 0.0016967487
0.78937137 -0.50854623 -0.0016700625 12033446 -0.087208912 -0.012796551 0.99610788 0.001771661
0.80706716 -0.5045287 -0.0019428134 12229546 -0.10605207 0.026534609 0.99400651 0.0051479051
0.81870162 -0.50060266 -0.00037154555 12164523 -0.070023999 -0.018415291 0.99737537 0.0020339258
0.69795787 -0.49712756 -0.0056635141 11506851 -0.076626621 0.018178655 0.99689412 0.0024335338
0.70694715 -0.49328995 -0.0080369264 11507364 -0.054151334 0.01773213 0.9983753 0.0025735893
0.71522409 -0.49757442 -0.0042564869 11770275 -0.056078676 0.016904322 0.99828327 0.0025007797
0.73746568 -0.49733266 -0.003902331 12098725 -0.085565656 0.0070487782 0.99630761 0.001967259
0.74192369 -0.49012998 -0.0047492087 12165034 -0.076364666 0.0091051534 0.99703842 0.0011870983
0.75316191 -0.49564168 -0.0032244276 12164261 -0.075008146 0.0051102275 0.99716985 0.0013766637
0.7740187 -0.49698696 -0.004716903 12361384 -0.093312956 0.0013697633 0.99563593 0.0023777019
0.78198749 -0.49488136 -0.0062864274 12098730 -0.11147769 -0.0012239181 0.99376619 0.0026875217
0.79203254 -0.49664694 -0.0017758757 12230311 -0.11173052 -0.010277004 0.99368542 0.0023674697
0.80761242 -0.49777994 -0.0017587841 12229546 -0.096672624 0.018842943 0.99513787 0.0061844615
0.81002796 -0.49204198 -0.002080366 12492457 -0.1143564 0.014391523 0.9933356 0.005764985
0.82024312 -0.49107561 -0.00033150613 12426665 -0.058343221 -0.031716712 0.99779266 0.0019265664
0.6715129 -0.4820565 -0.0094228089 11506845 -0.087703615 -0.0066622868 0.99612439 0.0016118343
0.68448597 -0.48636359 -0.007404618 11572897 -0.087197408 -0.015486974 0.99607068 0.0019427089
0.70216227 -0.48089689 -0.006046921 11704224 -0.07232368 0.017382752 0.99722975 0.0030733519
0.71596187 -0.48844188 -0.0040074587 12098210 -0.058049947 0.0076143965 0.99828464 0.0026676957
0.72422147 -0.48508617 -0.006275937 11835808 -0.072712049 -0.0052806661 0.99733901 0.001808914
0.75454026 -0.48649698 -0.004090108 12164520 -0.057832379 0.0024474743 0.99832332 0.0012766885
0.77800077 -0.4890995 -0.00083617866 12427175 -0.010055006 0.00065084174 0.99994928 0.0011751794
0.78039283 -0.48359615 -0.0011786669 12295340 -0.0099926591 -0.02286889 0.99968857 0.00087119994
0.79374433 -0.48418459 -0.0016731843 12426667 -0.11864121 0.005066901 0.99292427 0.0027274617
0.65336829 -0.47135463 -0.0093095452 11375007 -0.10030782 -0.011727262 0.99488735 0.0013337667
0.67106605 -0.47570828 -0.0089598298 11703452 -0.098992467 0.010627989 0.99503148 0.0011232051
0.68497568 -0.47434899 -0.006935671 11572897 -0.049917519 -0.0021721236 0.99875098 0.0021164936
0.69988608 -0.4732599 -0.0050126612 11901860 -0.058888376 0.0058580488 0.99824739 0.0027836883
0.70997965 -0.47410533 -0.0087477714 11704222 -0.082307622 0.018370297 0.99643767 0.0019612976
0.71737254 -0.47416663 -0.0040404722 11901859 -0.063835032 0.014864737 0.99784976 0.0023408269
0.72982848 -0.47280368 -0.0070695728 12164003 -0.061705038 0.0073071122 0.99806768 0.002188442
0.73990577 -0.47912386 -0.0036666095 12295590 -0.072082289 0.015247126 0.99728215 0.0016816782
0.75565624 -0.47676983 -0.0028351322 12230308 -0.056769364 0.01112694 0.99832535 0.0015285132
0.76943392 -0.47479069 -0.0029718131 12229798 -0.072710678 -0.01027921 0.99730015 0.0022431926
0.77741075 -0.47254828 -0.0045380741 12033440 -0.088146433 -0.008311756 0.99607289 0.0029556435
0.78025299 -0.47327527 -0.00065097213 12362153 -0.036939323 -0.00032602996 0.99931753 0.0014487071
0.7935527 -0.47067973 -0.0011555701 12362154 -0.10320155 0.01328906 0.99457169 0.0027582918
0.83495009 -0.47183508 -0.00013804436 12625069 -0.08244656 -0.0041443259 0.99658692 0.0035048025
0.65359586 -0.46261236 -0.0089225918 11506075 -0.10248345 -0.013496041 0.99464315 0.0015000686
0.66787559 -0.46768466 -0.0075815618 11703452 -0.099305704 0.0023671833 0.99505413 0.0014571439
0.67223132 -0.46128443 -0.0085664988 11638175 -0.10185693 -0.0064686714 0.99477804 0.0015909853
0.68821895 -0.46397296 -0.0073592216 11835556 -0.070634276 0.0043415762 0.99749285 0.0017116205
0.70245105 -0.46538499 -0.005348593 11835813 -0.064170539 0.0045412928 0.99792862 0.0023055356
0.7123943 -0.46167508 -0.0080008358 11966626 -0.068030596 -0.0026870333 0.99767965 0.0021399974
0.7258606 -0.46503723 -0.0056461543 12032675 -0.052255325 0.011024899 0.99857289 0.0019065384
0.74091709 -0.46660548 -0.0033252239 12295335 -0.086312301 0.016414599 0.99613291 0.0018882786
0.75512654 -0.46729785 -0.0034017265 12098724 -0.065935999 0.01258856 0.99774444 0.0015683367
0.77968681 -0.4671725 -0.0048146248 12427177 -0.085177042 0.0020311291 0.99636376 0.0027972381
0.78011048 -0.46298468 -0.00012402236 12362411 -0.056673855 0.0022362173 0.99839026 0.0011360239
0.79984528 -0.4638612 -0.0021627545 12296107 -0.099062011 -0.0082585849 0.99504703 0.003760925
0.65678936 -0.45270884 -0.0093953311 11637403 -0.10537851 -0.0098769739 0.99438316 0.0016408984
0.67591244 -0.4513562 -0.0091653317 11769246 -0.085686035 0.011247245 0.99625874 0.0016151646
0.68893129 -0.45515537 -0.0071187615 11769247 -0.059388965 0.0013910085 0.99823397 0.0016685766
0.69084281 -0.45592767 -0.0095608458 11639201 -0.10228808 0.005059903 0.99474198 0.0022568726
0.7082715 -0.4530234 -0.0063882023 12229796 -0.064598769 0.013162751 0.99782461 0.0017104988
0.71041173 -0.4500525 -0.0079483539 11967394 -0.080737479 0.037673123 0.99602324 0.0023772046
0.72569388 -0.45531404 -0.0052467808 12229798 -0.055546544 0.020040158 0.99825501 0.001791546
0.73503178 -0.45072031 -0.0074117035 12032671 -0.066581614 0.0389296 0.99702126 0.0022578668
0.74749935 -0.45709783 -0.0046308637 12361643 -0.072795436 0.018326374 0.99717849 0.001900492
0.75426984 -0.45865843 -0.0028642863 12361383 -0.067390978 0.031290855 0.99723583 0.0017001107
0.76580971 -0.45282724 -0.0026699752 12492714 -0.10369051 0.016785257 0.99446803 0.001493136
0.78310412 -0.45905572 -0.0052281618 12295332 -0.087885231 0.043044638 0.99520016 0.0024673457
0.80480903 -0.45356715 -0.0010006502 12427687 -0.088219576 -0.014504285 0.99599546 0.0018698943
0.83264363 -0.45570517 -0.0014558509 12887466 -0.072732158 0.002074807 0.99734938 0.0053103222
0.65770257 -0.44140512 -0.0090870857 11441049 -0.095713079 0.0062504336 0.9953894 0.0018394539
0.6738627 -0.44109106 -0.0080158114 12031645 -0.073159993 0.018043853 0.99715704 0.001154428
0.69187343 -0.44389191 -0.0083630234 11966622 -0.069576196 -0.00038139836 0.99757659 0.0015137414
0.70691168 -0.44598109 -0.0056454539 12098728 -0.059411347 -0.00098194927 0.99823314 0.0016359515
0.71282041 -0.44225329 -0.0082117766 12032160 -0.055131663 0.048500299 0.99730051 0.0015708891
0.72520852 -0.44577986 -0.0044525266 12361639 -0.051934633 -0.016653588 0.99851161 0.0013977375
0.73823118 -0.44616419 -0.0079550743 12295842 -0.043687169 0.047676925 0.99790704 0.0023882214
0.74665779 -0.44352525 -0.0037391111 12230824 -0.066148378 0.009009026 0.99776912 0.002083672
0.7543844 -0.44785345 -0.0052426159 12426923 -0.048948988 0.033228736 0.99824846 0.0026312659
0.78327215 -0.44500363 -0.0024014711 12624811 -0.096556753 0.00029360745 0.99532741 0.0026041195
0.80214071 -0.44143018 -0.0018219501 12624043 -0.10131709 -0.025525067 0.99452668 0.0036137812
0.65953189 -0.43061137 -0.0090898871 11572637 -0.084893674 0.010996096 0.99632937 0.0012772755
0.67272562 -0.43140838 -0.0071720332 12098464 -0.070909031 0.0025062824 0.99747968 0.0012935903
0.69427907 -0.43659133 -0.0077429414 12032675 -0.068053126 0.00018417463 0.99768168 0.0016205553
0.70764005 -0.43696612 -0.005399622 12098729 -0.078114219 -0.011448862 0.99687868 0.0017606653
0.71523088 -0.43442369 -0.008474499 12163492 -0.045256574 0.02049165 0.99876523 0.000969332
0.72595185 -0.43657896 -0.004201591 12557989 -0.041325748 -0.029654939 0.99870557 0.0013356945
0.73781669 -0.43654579 -0.0075079128 12295588 -0.067093052 0.0036496334 0.99774003 0.0056195771
0.74648845 -0.43362644 -0.0032083392 12362665 -0.059497088 -0.010219246 0.99817616 0.0019082639
0.75224161 -0.43199855 -0.0044957697 12427946 -0.082859531 -0.013947668 0.9964636 0.0041198162
0.76601064 -0.43702242 -0.004649736 12492712 -0.085814148 -0.011505002 0.99624473 0.0026939888
0.7785114 -0.43699631 -0.0034863651 12492973 -0.095489547 -0.0083159944 0.99539566 0.0034893022
0.66205013 -0.42314029 -0.009480387 11900833 -0.09360671 0.020016007 0.99540806 0.001634687
0.67161912 -0.42364389 -0.009506017 11900320 -0.085502215 0.00033245978 0.99633789 0.0016606406
0.6800915 -0.42338502 -0.0089822859 12294561 -0.055955082 -0.0013791807 0.99843234 0.0011359336
0.69457269 -0.42266697 -0.008158505 12163491 -0.068805017 -0.009347056 0.99758637 0.0021271447
0.71402979 -0.42623565 -0.0072447807 12164006 -0.065240733 -0.0026355658 0.99786609 0.0011032753
0.72290486 -0.4200474 -0.0097051859 12229798 -0.068249285 -0.0045949593 0.99765772 0.0032617236
0.73494267 -0.42708048 -0.006260775 12361127 -0.048785523 -0.018709168 0.9986341 0.0033905436
0.7524175 -0.42020971 -0.0041465312 12625064 -0.069038503 -0.011321145 0.99754971 0.002538132
0.76753545 -0.4295308 -0.0046644434 12492968 -0.081808984 -0.020041198 0.99644649 0.003383839
0.77811712 -0.42697814 -0.0030445606 12493222 -0.048075333 -0.025325902 0.99852258 0.0036604388
0.78535879 -0.42054212 -0.0043081641 12492965 -0.17722273 -0.025844401 0.98383141 0.002922524
0.80022949 -0.42374253 -0.00081439316 12690349 -0.13900408 -0.017261531 0.99014139 0.0052462309
0.66365504 -0.41512501 -0.0095589384 12032160 -0.098418161 0.014555372 0.99503875 0.0018955022
0.68079472 -0.4146814 -0.0087449551 12097699 -0.077808708 -0.024649493 0.99666351 0.0027942918
0.69668692 -0.41317225 -0.0079479618 12229796 -0.064285748 -0.0057323407 0.99791509 0.0024121879
0.70933729 -0.41595665 -0.0048266649 12164005 -0.088257164 0.00089229643 0.99609733 0.0018061422
0.72534621 -0.41613156 -0.006631285 12295588 -0.059324138 -0.00070014602 0.99823856 0.002847356
0.74270773 -0.41372645 -0.0046141371 12427432 -0.076467276 -0.016126782 0.99694169 0.0057198415
0.76692331 -0.41499713 -0.0011312366 12362151 -0.10033331 -0.0049021486 0.99494177 0.0026555364
0.80443877 -0.41895348 -0.0014800578 12689836 -0.10781546 0.017494936 0.994017 0.0056398138
0.83434606 -0.41822162 -0.00046668947 12823216 -0.021143513 0.027767388 0.99939078 0.0033462928
0.66549242 -0.40423256 -0.0095590353 11769503 -0.10920263 -0.019513689 0.993828 0.0031596415
0.67481756 -0.40551379 -0.0064658821 12098210 -0.072642446 -0.031816814 0.99685043 0.002440023
0.68173307 -0.40306637 -0.0084282011 12098461 -0.08513698 -0.044813432 0.99536097 0.0030617772
0.69808346 -0.40484118 -0.0086435778 12229795 -0.047190271 -0.010819994 0.99882728 0.0021633802
0.70542908 -0.40464792 -0.0031415969 12295331 -0.09248621 0.0036449658 0.99570733 0.0016280465
0.71885818 -0.4058089 -0.0082406998 12427429 -0.078748032 -0.0091470517 0.99685264 0.0041498044
0.72818184 -0.40897626 -0.0034488738 12295847 -0.056446552 -0.002230756 0.99840313 0.001429155
0.74553502 -0.4072322 -0.00498759 12492968 -0.083631665 -0.01902188 0.99631518 0.0053584753
0.75343865 -0.40756986 -0.0038018376 12558504 -0.063483663 -0.012720102 0.9979018 0.0024433637
0.77725208 -0.40136915 -0.0031683743 12493991 -0.11786446 -0.0058622882 0.99301243 0.002854676
0.78324378 -0.40641388 -0.0033632591 12755883 -0.11680175 -0.036013879 0.99250209 0.0067209052
0.79170138 -0.40387908 -0.00023624301 12821676 -0.061885178 -0.0059783347 0.99806541 0.0028825998
0.80501437 -0.40912172 -0.0012452006 12690607 -0.09316083 0.002539322 0.99564785 0.0077946112
0.66618234 -0.39569214 -0.0093261302 11966877 -0.14216095 -0.025613984 0.98951215 0.0034339647
0.68035793 -0.39632919 -0.0076647401 12098202 -0.068039119 -0.027864194 0.99729347 0.0039255754
0.69615555 -0.39632177 -0.0074520782 12164515 -0.063636482 -0.012416936 0.9978959 0.0027725305
0.70063937 -0.39358813 -0.0074180514 12230050 -0.043868754 -0.0046600555 0.99902648 0.0033188227
0.71474832 -0.39672607 -0.005403623 12361127 -0.081575043 0.0058321995 0.99665016 0.0017467935
0.72780079 -0.39476967 -0.0098884255 12295076 -0.083494484 -0.0065402761 0.99648678 0.0036508476
0.7338292 -0.39890167 -0.0045145303 12558247 -0.056545556 -0.00586465 0.99838281 0.0019452943
0.74108011 -0.39749947 -0.00679259 12558501 -0.10384793 0.0067936485 0.99457002 0.003457811
0.75326937 -0.39767107 -0.003271088 12362401 -0.080209576 -0.0091398237 0.99673611 0.0033593141
0.76305711 -0.39448604 -0.0051574707 12887980 -0.088961363 -0.023006298 0.99576938 0.0056870929
0.77402413 -0.39323151 -0.0019322336 12690088 -0.10717779 0.0020827875 0.99423778 0.0029914859
0.78762972 -0.39850244 -0.0039841682 12493486 -0.094583191 0.01294743 0.99543279 0.0080437949
0.80367351 -0.39846799 -0.00060068071 12756660 -0.10764043 0.016369134 0.99405515 0.0086379582
0.66606748 -0.38526383 -0.0087446198 12032413 -0.16233861 -0.011059806 0.98667318 0.0037581064
0.67728466 -0.38400531 -0.0071753613 12098208 -0.097408436 -0.005187653 0.99523097 0.004433976
0.70244181 -0.38273627 -0.0084580183 12361380 -0.0494009 -0.0051152972 0.99876595 0.0030719829
0.71479428 -0.38422033 -0.0047872514 12361382 -0.083786577 0.020277146 0.99627745 0.0017911223
0.73480678 -0.38601393 -0.0061502755 12492709 -0.082875349 -0.0028752943 0.99655575 0.002190446
