# .PCD v0.7 - Point Cloud Data file format
VERSION 0.7
FIELDS x y z rgb normal_x normal_y normal_z curvature
SIZE 4 4 4 4 4 4 4 4
TYPE F F F U F F F F
COUNT 1 1 1 1 1 1 1 1
WIDTH 527
HEIGHT 1
VIEWPOINT 0 0 0 1 0 0 0
POINTS 527
DATA ascii
1.104741 0.20513268 0.059761912 11838893 -0.10970362 0.054023955 0.99249512 0.0037825461
1.1293904 0.20480281 0.059868485 9204349 -0.12654054 0.029600784 0.99151969 0.0020524778
1.1536533 0.20450923 0.053392202 11444633 -0.11782264 -0.019696353 0.99283934 0.0026777857
1.175603 0.20835902 0.057117134 10256784 -0.10444828 0.0020233842 0.99452829 0.0015580896
0.96478927 0.21618323 0.050726376 9731976 -0.1207877 0.022606559 0.99242097 0.0035278092
0.98945481 0.2157983 0.050506324 12036006 -0.07939221 -0.018391909 0.99667376 0.002375416
1.011005 0.21616538 0.050210685 11574932 -0.13438 0.033783723 0.99035382 0.0023235346
1.0251923 0.21488816 0.053083997 11113369 -0.14214273 0.028363338 0.98943973 0.0032230436
1.0417143 0.21347255 0.055440933 12628394 -0.11568823 -0.0093224421 0.99324185 0.0020879079
1.0542089 0.21664467 0.054460876 8876407 -0.12542556 -0.017798884 0.99194336 0.0031155185
1.0618912 0.21729037 0.056838661 11310495 -0.12488186 -0.017238708 0.99202192 0.0029792348
1.0746903 0.2142524 0.052574307 13483715 -0.14036699 0.040264018 0.98928052 0.0041902661
1.0938534 0.21770743 0.054599047 11509663 -0.11237543 0.0081830621 0.99363214 0.0052207345
1.1345539 0.21861413 0.050496846 12629944 -0.12154696 -0.0055255177 0.99257028 0.0019343346
1.1505578 0.21268563 0.054829389 8809081 -0.11300065 -0.017635059 0.99343842 0.0024696644
1.1765434 0.21755175 0.057520509 13023416 -0.10777123 0.0018204153 0.99417412 0.0014218899
1.2026099 0.21322149 0.059933335 8678272 -0.11085195 -0.0045554456 0.99382651 0.00087484042
0.99222678 0.22654724 0.052909791 11047321 -0.033592485 -0.010149023 0.99938416 0.0046967543
1.0063795 0.2249274 0.053020544 10850966 -0.1327156 -0.037368193 0.99044955 0.0036173181
1.0118096 0.22451945 0.05045256 11835808 -0.12084741 0.010622748 0.99261427 0.0014222576
1.0296904 0.22815748 0.052905381 11376789 -0.16047823 0.015187569 0.98692256 0.0074134767
1.0425401 0.22204646 0.055689186 11575459 -0.10469866 -0.019452792 0.99431378 0.0017771943
1.0545906 0.22537383 0.053534396 11114910 -0.11440444 0.0014256783 0.99343324 0.0024634874
1.0627309 0.22600827 0.057091027 11573400 -0.13050464 -0.023199387 0.99117625 0.0031523071
1.0742903 0.22285154 0.0569309 11573917 -0.10222001 -0.022320559 0.99451137 0.002468643
1.0944306 0.22713652 0.054728389 11706016 -0.14444862 0.0015580804 0.98951107 0.0043320144
1.1102973 0.2204881 0.058025271 11706528 -0.11410819 0.0067360001 0.99344552 0.003366268
1.127417 0.22565743 0.053023458 11706013 -0.11860849 -0.021303793 0.99271256 0.0028660486
1.1474564 0.2208015 0.056263924 11837348 -0.11956093 -0.0078119487 0.99279612 0.0021418275
1.1734581 0.2258586 0.058933049 11967904 -0.10618726 0.0013313518 0.99434531 0.0013362338
0.99609262 0.23502651 0.052531436 11047319 -0.053033009 -0.027445991 0.99821556 0.00458977
1.0126143 0.23287345 0.050694436 11377308 -0.12826286 0.007037323 0.99171531 0.0015780579
1.0260409 0.2313163 0.053976744 11574165 -0.1667809 -0.0021590255 0.98599166 0.0010966058
1.0305239 0.23609452 0.05316028 11180184 -0.19063058 -0.01112118 0.98159885 0.0054724361
1.0436916 0.23367195 0.056824286 11377820 -0.13866633 -0.019623794 0.99014467 0.0023274638
1.0544298 0.23771125 0.056243844 9798280 -0.13716725 -0.049061343 0.9893322 0.0041208258
1.0635705 0.23472616 0.057343453 11573400 -0.1272615 -0.021499839 0.99163616 0.0029267792
1.0750095 0.23163274 0.057127647 11114647 -0.099812336 -0.029099043 0.99458069 0.0023004587
1.0896839 0.23982596 0.057282031 11508637 -0.13716379 -0.015109494 0.99043316 0.004007984
1.1135161 0.235365 0.057255715 11443356 -0.10959402 0.0059593064 0.99395853 0.0037165778
1.1242934 0.23352936 0.054477662 11639710 -0.11634917 -0.039860241 0.99240828 0.0027031635
1.1523995 0.23069252 0.055619568 11574427 -0.1131321 -0.028182343 0.99318022 0.0024026402
1.1784239 0.23593731 0.058327287 11705754 -0.091332637 -0.0070776185 0.99579525 0.0012053481
0.97391009 0.24543364 0.050630923 11244695 -0.10832013 0.020052914 0.99391377 0.0066580675
1.0142235 0.24958156 0.051178128 11310744 -0.14442211 -0.0081596337 0.98948258 0.0010261345
1.0285031 0.24379316 0.053892702 11048337 -0.16198573 -0.027457008 0.98641104 0.0031201011
1.0361143 0.24843425 0.057789639 9469313 -0.11885046 -0.048888844 0.99170786 0.003667915
1.046904 0.24529846 0.057583213 11114648 -0.14990054 -0.037960865 0.98797208 0.0032942828
1.0563999 0.24662431 0.053700261 10324879 -0.12856695 -0.033688899 0.9911285 0.004258025
1.0644102 0.24344414 0.057595819 11507607 -0.11748093 -0.007148996 0.9930495 0.0025172296
1.0726665 0.24117124 0.054558456 11377051 -0.1219445 -0.013921801 0.99243927 0.0028372507
1.0818523 0.24043091 0.059532985 11375770 -0.08823242 -0.032630119 0.99556535 0.0015460331
1.1292216 0.24330091 0.053797662 11638942 -0.14806724 -0.052141644 0.98760188 0.0030073973
1.1557953 0.24467182 0.055693775 11639451 -0.080440424 -0.038564947 0.9960131 0.0020685801
1.1844035 0.24631324 0.057472557 11639963 -0.097733229 -0.0088706985 0.99517316 0.0013721467
0.97545934 0.25779355 0.050704479 11047572 -0.11031935 -0.0020005323 0.99389422 0.0054240236
0.9954434 0.25717449 0.053893358 10915986 -0.062335081 -0.048657063 0.99686855 0.0042477031
1.0280005 0.25353116 0.054505967 10982289 -0.15932918 -0.028714143 0.98680782 0.0037708776
1.0458659 0.25579503 0.057628497 11114904 -0.164793 -0.017948216 0.98616487 0.0022198081
1.0613712 0.25114903 0.059322029 11507607 -0.11646469 0.0086345524 0.99315727 0.001632247
1.0753844 0.25558084 0.053948745 11311258 -0.12213577 -0.023177486 0.99224275 0.0038081906
1.0871084 0.25497279 0.058903441 11442587 -0.11202498 -0.0015645816 0.9937042 0.0032392838
1.1070113 0.2554234 0.05203411 11508375 -0.12103657 -0.021827111 0.99240804 0.0036115521
1.1173255 0.25989151 0.056618541 11180184 -0.10238436 -0.020779781 0.99452788 0.004732444
1.1341559 0.25313294 0.053120345 11638939 -0.14902066 -0.059069477 0.98706818 0.0032396019
1.1853477 0.25554389 0.0578776 11573916 -0.092398815 -0.013065928 0.9956364 0.0022153698
1.0023898 0.26665786 0.052896619 10784911 -0.054524772 -0.013605269 0.99841976 0.004244376
1.0154303 0.26211262 0.051540911 11048342 -0.1479073 0.00048775226 0.9890011 0.0011057836
1.0330375 0.26709902 0.05367972 10653067 -0.15755792 -0.020655347 0.98729372 0.0027478784
1.0469756 0.26526704 0.057643618 10522512 -0.1443072 -0.015940299 0.98940462 0.0028522878
1.0587058 0.26122642 0.05148381 11114392 -0.10994274 -0.04437891 0.99294668 0.0031620213
1.0665094 0.26523894 0.058226809 11441557 -0.11726278 0.0098205451 0.99305242 0.0020276862
1.0869106 0.26633722 0.056568038 11310230 -0.08170753 -0.020356949 0.99644846 0.0035291652
1.0929933 0.26381248 0.056817949 11442843 -0.11018825 -0.02024739 0.9937045 0.0048678601
1.1169391 0.26784053 0.05348967 11245463 -0.11044237 -0.016091002 0.99375224 0.0037868153
1.1274407 0.26429936 0.055827886 11507606 -0.14111501 -0.032588944 0.98945671 0.0033614642
1.1515865 0.26118076 0.058035791 11376790 -0.069397852 -0.022791479 0.99732876 0.0020436512
1.1862918 0.26477453 0.058282644 11574170 -0.093292907 -0.0031524375 0.99563378 0.0025315157
0.99872023 0.27349478 0.05232846 10784657 -0.077830434 -0.035860188 0.99632144 0.0046382784
1.0166373 0.27464372 0.051903695 11047826 -0.1529967 -0.033614162 0.98765486 0.0010937228
1.0336453 0.2771984 0.053894054 10652555 -0.14367042 -0.018755658 0.98944789 0.0037944466
1.0466789 0.27494645 0.058780741 10259595 -0.13784832 0.011189056 0.99039018 0.0029981481
1.0511591 0.27249962 0.055336177 10917780 -0.11084042 -0.035528883 0.99320298 0.0023938059
1.0745754 0.27581462 0.055303026 11245208 -0.12452833 -0.013092611 0.99212962 0.0043584886
1.0973163 0.27428192 0.055375218 11377050 -0.11568723 -0.0085922061 0.99324852 0.0055845603
1.113309 0.27576131 0.055256262 11179671 -0.10932092 -0.022963054 0.99374127 0.0038927377
1.1287895 0.27748647 0.056406528 11375767 -0.16125081 -0.0121581 0.98683858 0.002548968
1.1529633 0.2746405 0.058626413 11310996 -0.08453615 -0.026736917 0.99606168 0.0028184943
1.187236 0.27400509 0.058687717 11442584 -0.083268724 -0.013383344 0.99643725 0.0029675704
0.97723484 0.28614905 0.05180933 10915729 -0.10925912 -0.04229372 0.99311316 0.003789542
1.0203476 0.28387451 0.050976545 11309713 -0.15135396 -0.040933475 0.98763174 0.0012309232
1.0367112 0.28561926 0.053356826 10915472 -0.13319869 0.0094199423 0.99104458 0.0045266431
1.0471115 0.28510705 0.056746174 9996169 -0.10394507 -0.0016446296 0.99458164 0.0018684898
1.0547069 0.28494355 0.055042338 10917011 -0.11721247 -0.0042056278 0.99309796 0.0042566191
1.0735147 0.28770131 0.05647473 11245464 -0.11487871 -0.0002927497 0.99337953 0.0040235524
1.0941437 0.28260976 0.057075858 11245977 -0.10258009 -0.02082712 0.99450672 0.0048747347
1.1137064 0.2824991 0.052083105 11113878 -0.13012139 0.0051497146 0.9914847 0.0031768782
1.1296889 0.28627792 0.056792289 11441814 -0.15802933 -0.0012580715 0.98743361 0.0020791069
1.1579251 0.28471327 0.057990044 11376021 -0.045677833 -0.0082466006 0.99892223 0.0014778004
1.192224 0.28430343 0.058091611 11310998 -0.096438967 -0.0092109665 0.9952963 0.0031844361
0.9795658 0.29687604 0.051820725 11112083 -0.073528431 -0.042283747 0.99639636 0.003689232
0.98534125 0.29862326 0.050680071 10587021 -0.093485989 -0.043255504 0.99468052 0.0066298647
0.99946409 0.29545864 0.055122837 10718608 -0.088505089 -0.032109983 0.99555808 0.0044689742
1.0008264 0.29488051 0.051173478 10916500 -0.088281162 -0.063562594 0.99406552 0.0037538104
1.0182465 0.2913518 0.052387387 11112334 -0.14803179 -0.049568363 0.98773962 0.0016396383
1.0212338 0.29499888 0.050336689 10587534 -0.10590392 -0.027411122 0.99399853 0.0041088606
1.0334864 0.292795 0.055529535 9797505 -0.11064894 -0.025951246 0.99352068 0.0029257254
1.0499722 0.2992115 0.057923168 11114391 -0.09771499 -0.045609932 0.99416876 0.0020618967
1.0544999 0.29183567 0.055051118 11113878 -0.094004609 -0.0084315324 0.99553609 0.0023790048
1.0605328 0.29867482 0.058499977 10589075 -0.097545192 -0.02075352 0.99501473 0.0024645412
1.0760907 0.29728794 0.055865407 11113622 -0.11229622 0.0085989255 0.99363762 0.0036654898
1.0930634 0.29272723 0.053895846 11245206 -0.087140352 -0.0063858856 0.99617559 0.0034143049
1.1163625 0.29632255 0.054430794 11179412 -0.14126395 0.01000383 0.98992139 0.0031804582
1.138683 0.29739296 0.055062503 11441299 -0.12297802 0.013971854 0.99231106 0.0025014384
1.1669407 0.29597655 0.056327492 11309974 -0.057134036 0.0048316275 0.99835485 0.0023178996
1.1931713 0.29356438 0.058497995 11310998 -0.092810348 -0.0064738579 0.99566275 0.0025722012
0.98344463 0.30887625 0.0516828 10521485 -0.11713195 -0.024538489 0.99281317 0.0051304041
1.0011444 0.3050248 0.053451642 10719120 -0.08403831 -0.046872295 0.99535948 0.004677067
1.0155721 0.30263805 0.054306656 10980749 -0.14000374 -0.05318277 0.98872167 0.001865866
1.0346797 0.30506104 0.05576662 9534846 -0.10946161 -0.031361677 0.99349612 0.0030910997
1.0424486 0.30224895 0.050554156 11375768 -0.17168707 0.060652338 0.98328269 0.0010301502
1.0555329 0.30496371 0.057060827 10851219 -0.089593276 0.0061530019 0.99595946 0.0019113229
1.0702878 0.30446959 0.059362561 11113365 -0.094175935 -0.025136087 0.99523824 0.0041867285
1.0803827 0.30725056 0.053850204 10982550 -0.11988086 0.049623102 0.99154735 0.0026071016
1.0926257 0.30112994 0.059146345 11310486 -0.12937851 0.00024285064 0.99159527 0.0037539108
1.1155504 0.306308 0.059202701 10982805 -0.13389318 0.025114622 0.99067748 0.003586482
1.1204202 0.3097567 0.052140027 10982031 -0.13799992 0.0067967027 0.99040896 0.0028060519
1.1395885 0.30624503 0.055450946 11309713 -0.11514699 0.013923585 0.99325097 0.0026804393
1.1557168 0.30155998 0.059807688 11310228 -0.075850703 0.0015299099 0.99711806 0.0029431188
1.1941185 0.30282521 0.05890435 11179412 -0.08897838 0.00065159058 0.99603337 0.0024389208
0.98150796 0.31704101 0.052404493 11046803 -0.078361638 -0.01568079 0.99680167 0.0029916624
1.0035985 0.31536442 0.053160787 10653326 -0.096044481 -0.041751888 0.99450105 0.0038882121
1.0167745 0.31512362 0.054668099 11046541 -0.12745607 -0.062219463 0.98989075 0.0017128773
1.026933 0.31528413 0.058214754 9732226 -0.087511584 -0.029546008 0.99572527 0.0028734377
1.0323135 0.31111377 0.056872934 8613752 -0.13061191 -0.06066829 0.98957562 0.0023547311
1.0432787 0.31581089 0.050740212 11179158 -0.13686742 0.020829508 0.99037039 0.0017329475
1.0556545 0.31651124 0.056637801 10587534 -0.10058003 -0.020526052 0.99471724 0.0024033519
1.0652701 0.31567103 0.051443174 10850705 -0.095641553 0.0086316029 0.99537843 0.0028053727
1.0730094 0.31800595 0.05919084 11178388 -0.066207267 -0.04103094 0.99696195 0.0013290395
1.080952 0.3165504 0.053977787 11048598 -0.10291268 0.026630372 0.99433386 0.0019143681
1.0962009 0.31269962 0.058690015 10784914 -0.14752772 0.027324574 0.98868042 0.0032925224
1.116134 0.31584349 0.059333503 11048083 -0.13623174 0.035873007 0.99002731 0.0037457338
1.1213109 0.31846482 0.052522153 11047826 -0.11248717 -0.0063253827 0.99363309 0.0043719728
1.1404939 0.31509697 0.05583939 11178640 -0.11937081 -0.0015951805 0.99284852 0.0025924519
1.1647415 0.31291413 0.058149099 11179412 -0.050213821 -0.0043360703 0.99872911 0.001620126
1.197566 0.31729588 0.059015304 11113364 -0.095614038 -0.027357856 0.9950425 0.0030131885
0.95342952 0.32593989 0.050620265 10520715 -0.076535061 -0.0097238757 0.99701947 0.0048895115
0.97099787 0.32248747 0.055262715 10455948 -0.11986097 -0.024880687 0.99247891 0.0050089746
0.98772031 0.32127565 0.051407546 10521741 -0.10033711 -0.015722251 0.99482924 0.0045068557
1.0031123 0.3234883 0.05220449 10916240 -0.1310645 -0.052484404 0.98998362 0.0021916332
1.0146598 0.3224569 0.056074828 10980748 -0.1126292 -0.060502499 0.99179339 0.0017168955
1.0364528 0.32474792 0.056095615 8547959 -0.098391451 -0.01760637 0.99499208 0.0018538486
1.0438322 0.3248522 0.050864279 11245205 -0.14134535 -0.019512601 0.98976803 0.0016168792
1.0630884 0.32300851 0.059281439 10719120 -0.098698668 -0.033996511 0.99453652 0.0019646965
1.0846539 0.32550359 0.054065183 11113109 -0.091656253 -0.0167256 0.99565023 0.0032317296
1.1002021 0.32142735 0.056022048 11048083 -0.14031984 -0.00023168327 0.99010623 0.0026896929
1.1174312 0.32563373 0.056725696 11113362 -0.12442717 -0.0012711431 0.99222797 0.0030841557
1.1413993 0.32394898 0.056227803 11113619 -0.12334816 -0.0086308867 0.99232602 0.0016687177
1.1661258 0.32644957 0.058743075 10982033 -0.071285889 -0.027181897 0.99708551 0.0021567186
0.9511714 0.33875263 0.050443441 10783630 -0.083724096 -0.011064723 0.99642754 0.0059446082
0.96068144 0.33335462 0.050713241 10192263 -0.088811643 -0.00090200454 0.99604803 0.0042363796
0.98694491 0.33457235 0.051259905 10915216 -0.12383481 -0.065181233 0.99015975 0.0029589972
0.99239951 0.3375186 0.051255748 10323849 -0.086356401 0.0017623492 0.99626279 0.0027747564
1.0052847 0.33530095 0.054534607 10718349 -0.11624545 -0.021460548 0.99298865 0.0022984853
1.0167098 0.33111852 0.054397285 10718090 -0.10117 -0.02237583 0.99461752 0.00297081
1.0363021 0.33532542 0.057272635 8811384 -0.092415802 -0.018320831 0.99555194 0.0014902828
1.0566155 0.33879369 0.057919413 10784652 -0.097866878 -0.040913254 0.99435824 0.002191396
1.0637813 0.33488309 0.05608128 10653072 -0.12145533 -0.020366119 0.99238795 0.0020667764
1.0751219 0.33463639 0.054660633 10981521 -0.077121384 -0.042102471 0.99613243 0.0027999512
1.0820905 0.33515 0.054232985 10916499 -0.11818046 -0.0094992975 0.99294668 0.0030860673
1.0957566 0.33596444 0.052452654 10916240 -0.05323245 -0.045797359 0.99753147 0.0030664585
1.1007792 0.33085644 0.05615139 11113879 -0.13335986 -0.0017381218 0.99106616 0.0027530447
1.1173013 0.33491459 0.059595168 11048085 -0.1094209 0.0051691053 0.99398208 0.0020305291
1.1230924 0.33588108 0.053286403 11112595 -0.11903523 -0.056033336 0.99130762 0.0024705152
1.1423048 0.33280098 0.056616247 11178642 -0.12616578 -0.016620509 0.99186993 0.0017366922
0.96183747 0.34436277 0.051066756 10258056 -0.087272592 -0.039790038 0.99538946 0.0062444191
0.98811466 0.34671682 0.051611483 10587275 -0.099861316 -0.033768188 0.99442822 0.0027797229
0.99502659 0.34881711 0.053931266 10520971 -0.090000197 -0.019016016 0.9957602 0.0028297503
1.0055122 0.34488994 0.054992251 10586508 -0.11325864 -0.017093554 0.99341851 0.0024199858
1.0195806 0.34425667 0.055511534 10849932 -0.10642603 -0.016624682 0.99418163 0.0023373552
1.0360055 0.34497941 0.057912707 9469054 -0.096384607 -0.028934237 0.99492353 0.0011733226
1.0449389 0.34293473 0.051112354 11113876 -0.11942182 -0.011176306 0.99278075 0.0019384073
1.0602951 0.34699991 0.054304063 10718607 -0.10008743 -0.0020928923 0.99497646 0.0019451559
1.0789077 0.34313461 0.055957377 10916499 -0.1062791 -0.016986378 0.99419123 0.0022567906
1.102681 0.34574082 0.054432828 10981523 -0.108298 -0.017431092 0.99396563 0.0030228049
1.1270304 0.3455981 0.052858472 10981779 -0.10901568 -0.063224047 0.9920274 0.0023927528
1.1432102 0.34165299 0.05700469 11112595 -0.09161748 -0.021126954 0.99557018 0.0017398922
1.1715763 0.34129664 0.058316171 11047572 -0.079384826 -0.031172108 0.99635655 0.002265651
0.96853119 0.35576883 0.052325577 10783630 -0.097309291 -0.043793518 0.99429023 0.0056948587
0.9888944 0.35481313 0.051845878 10521228 -0.087681413 -0.040820185 0.99531186 0.0036601971
0.99168533 0.35902959 0.052619994 10126724 -0.081669316 -0.04181977 0.99578178 0.0018386631
1.0246835 0.35818422 0.054322273 10587273 -0.11681282 -0.01436025 0.99305016 0.0022900824
1.039414 0.35206944 0.05720266 8679540 -0.11453496 -0.037710007 0.99270326 0.0014452147
1.0454924 0.35197598 0.051236391 10917012 -0.10622814 -0.036806673 0.99366033 0.0019447232
1.0553398 0.35494179 0.059536591 10915727 -0.10898246 -0.021681314 0.9938072 0.0027276473
1.0683446 0.35889426 0.051180422 10784401 -0.11725584 -0.033055246 0.99255145 0.0018113389
1.0788213 0.3557452 0.053437278 10850193 -0.086875044 -0.016975464 0.99607462 0.0022984019
1.0965961 0.35485774 0.056068569 10850448 -0.09804143 -0.019525014 0.99499077 0.0034115962
1.1184688 0.3539857 0.059856802 10915986 -0.11218247 -0.029178355 0.99325913 0.0043414002
1.1248738 0.35329738 0.054050654 10915470 -0.095885023 -0.044429831 0.99440038 0.0025333487
1.1440452 0.35378441 0.05838133 10981776 -0.08879289 -0.018528564 0.99587774 0.0022817834
1.175508 0.3557125 0.058274761 10916240 -0.097937904 -0.022663571 0.99493444 0.0026273071
0.93992698 0.36726072 0.050186872 10060159 -0.14737099 -0.090062007 0.98497242 0.0036462531
0.95832306 0.36749113 0.053202033 10060159 -0.073362805 -0.073042795 0.99462694 0.0028488741
0.9684062 0.36220843 0.051609375 10389128 -0.088087201 -0.068094932 0.99378252 0.0038686888
0.98952478 0.36412877 0.052788332 10323591 -0.068609454 -0.03363537 0.99707645 0.0032763775
1.0082229 0.36561751 0.053321213 10455432 -0.11372248 -0.033392251 0.99295127 0.0027569877
1.0151966 0.36027095 0.055252314 10258308 -0.10068247 -0.032520808 0.99438697 0.0019009669
1.0215847 0.36506599 0.056113988 10652294 -0.1259727 -0.020537676 0.99182111 0.0023173005
1.0362899 0.36460376 0.05880069 8744563 -0.10548873 -0.034951992 0.99380606 0.0019276426
1.0449533 0.36205223 0.054299504 10061960 -0.096520185 -0.0349994 0.99471551 0.00163653
1.052717 0.36250147 0.050404102 10719121 -0.13101861 -0.042759907 0.9904573 0.0027742791
1.0837982 0.36304945 0.054615736 10916500 -0.10072489 -0.023858542 0.99462825 0.0021867412
1.0988437 0.36433661 0.055904225 10915984 -0.098444067 -0.013783531 0.99504715 0.0032800618
1.1229551 0.36506969 0.056881979 10784399 -0.10853367 -0.042267431 0.99319381 0.0039058779
1.1459265 0.368209 0.058169991 10849677 -0.059906028 -0.040980663 0.99736249 0.001378753
0.93756944 0.37309274 0.051093236 9994364 -0.14706825 -0.068181626 0.98677361 0.0048353164
0.95390826 0.37261558 0.054527029 9994366 -0.090731487 -0.049255352 0.99465662 0.004262323
0.96790475 0.37840435 0.054242373 10586251 -0.088531762 -0.0079551712 0.99604166 0.0040482352
0.9739545 0.37322593 0.0511491 10652044 -0.086044535 -0.023436086 0.99601567 0.0042992909
0.98759174 0.37833118 0.05438409 10257796 -0.064521216 -0.039183237 0.99714673 0.0039917328
0.99341524 0.37319589 0.052393258 10323590 -0.090595737 -0.02278767 0.99562705 0.0037764448
1.008127 0.37457955 0.055568263 10389382 -0.11424632 -0.039544165 0.99266517 0.0030628634
1.0194567 0.37226275 0.057516724 10587271 -0.11794584 -0.037980285 0.99229348 0.0026513629
1.0253161 0.37205911 0.051537156 10455948 -0.090555497 -0.012197939 0.99581671 0.001426352
1.0387125 0.37511158 0.058778808 8744048 -0.10468766 -0.031107211 0.99401861 0.0022226311
1.0465991 0.37005851 0.051484495 10719631 -0.077567823 -0.022965176 0.99672258 0.0017349628
1.0619543 0.37401623 0.056422427 10784143 -0.1015143 -0.017934829 0.99467242 0.0017002367
1.0787762 0.37940833 0.052131742 10783884 -0.075399943 -0.011844706 0.99708307 0.0032570194
1.0826724 0.37226894 0.052829176 10849935 -0.076358691 -0.016645545 0.99694145 0.0024412223
1.1057422 0.37759954 0.054360583 10849935 -0.12141728 -0.039463397 0.99181676 0.0038706218
1.1193947 0.37648913 0.057346582 10784654 -0.09416154 -0.034522925 0.99495822 0.0032829051
1.1509074 0.37849542 0.057512581 10784400 -0.057009101 -0.018815296 0.9981963 0.0013200266
1.1794477 0.37020403 0.058236688 10981263 -0.12003943 -0.028048903 0.99237281 0.0023768269
0.93869334 0.38379416 0.051436901 9928572 -0.13119341 0.0012328774 0.99135602 0.004966605
0.96918732 0.38604984 0.051709235 9928571 -0.063249983 -0.018278157 0.99783039 0.0038922706
0.97159189 0.38754761 0.053245604 10389896 -0.093476318 -0.024330303 0.99532419 0.0049227383
0.98863727 0.38663194 0.05485335 9994366 -0.085746817 -0.040146418 0.99550778 0.0037690762
0.99201351 0.3871983 0.052783459 10585992 -0.098675355 -0.054998107 0.9935987 0.0048342473
1.0095407 0.38535744 0.053792864 10520197 -0.12124823 -0.062655404 0.99064285 0.002757505
1.0176305 0.38344589 0.055996567 9798268 -0.10147997 -0.045744967 0.99378532 0.0038314585
1.0230582 0.38075602 0.054708079 10587275 -0.10296676 -0.024547564 0.99438184 0.0024202461
1.0396273 0.38705069 0.059071392 9334896 -0.11357203 -0.0075486898 0.99350113 0.0021952915
1.0428541 0.38365394 0.055838048 9666687 -0.079447068 -0.040033843 0.99603486 0.0016404625
1.0527644 0.38211262 0.051879793 10521224 -0.1219766 -0.02595719 0.99219352 0.0022156155
1.0613228 0.3866801 0.057388261 10652300 -0.10580863 -0.014393996 0.99428236 0.0018787279
1.081461 0.3848469 0.056529641 10718862 -0.10372037 -0.020927332 0.99438632 0.0022079051
1.100472 0.38599515 0.05849424 10784400 -0.15077612 -0.027781684 0.98817754 0.0035263614
1.1202792 0.38513669 0.057726055 10718091 -0.094208561 -0.0036402899 0.9955458 0.003558655
0.93981725 0.39449552 0.051780581 9928573 -0.123956 0.022149574 0.99204051 0.005416194
0.95937365 0.39482588 0.050783008 10389124 -0.11449254 -0.012549079 0.99334484 0.0038370094
0.96307844 0.39390793 0.053586215 9928570 -0.08406128 -0.001293581 0.99645978 0.0040277494
0.97918504 0.39839485 0.050616294 10520710 -0.10731398 -0.027823653 0.99383581 0.0050517842
0.99432766 0.39786965 0.053199187 10191488 -0.08958406 -0.029224312 0.99555039 0.0039148186
1.0065359 0.39378572 0.055412937 10258052 -0.12547497 -0.020301891 0.99188906 0.0038370972
1.0215032 0.39273137 0.056876279 10192001 -0.1156816 -0.024929825 0.99297345 0.0034823059
1.0301372 0.39136875 0.050101608 10915216 -0.082152016 -0.0031250643 0.99661493 0.0015747461
1.0591187 0.39637017 0.050967604 10324099 -0.087061785 -0.034185234 0.99561626 0.004048503
1.0668451 0.39419934 0.053308189 10587021 -0.097169548 -0.027595205 0.99488521 0.0018162286
1.0845401 0.39461738 0.053619161 10652555 -0.092019223 -0.011338501 0.99569267 0.0026585569
1.105266 0.39413127 0.054869432 10652298 -0.11375319 0.0026238258 0.99350554 0.0040935562
1.1252453 0.39531109 0.05703339 10718089 -0.083930768 0.011448581 0.9964059 0.0032457495
1.1522702 0.39181888 0.058097214 10652556 -0.075004235 -0.0035082849 0.99717706 0.001932472
0.91866136 0.40545902 0.050410658 9731192 -0.15281427 0.048683181 0.98705512 0.0041761007
0.94327295 0.40010029 0.05018267 10257538 -0.10367292 -0.011655065 0.99454314 0.0022619534
0.96133059 0.40528202 0.052748591 10060158 -0.11716728 -0.0023321982 0.99310941 0.0028784228
0.97702688 0.40512592 0.052072614 10520712 -0.10071118 -0.0094203129 0.99487114 0.0050222096
0.98858684 0.4051339 0.055574387 10323330 -0.10265935 -0.054362793 0.99322999 0.0047677173
1.0067384 0.40805084 0.058340564 10125950 -0.12249684 -0.017133081 0.99232101 0.0044384771
1.010722 0.40265405 0.058565363 9732217 -0.12510893 0.0060213916 0.9921248 0.0037150751
1.0274925 0.40761587 0.05202499 10718091 -0.10188229 -0.0065690679 0.99477482 0.0015021464
1.0306832 0.40028837 0.050223976 10718859 -0.09768907 -0.0041320254 0.99520844 0.0014442306
1.0461612 0.40129626 0.055109307 10388868 -0.09436439 -0.011753471 0.99546838 0.001354578
1.0657241 0.4047893 0.051801562 10389638 -0.082712404 -0.024349298 0.9962759 0.0022830926
1.08497 0.40938556 0.054121867 10520712 -0.080263816 -0.020723885 0.99655825 0.0034467981
1.0996511 0.40280205 0.056262642 10389894 -0.11088529 -0.032235149 0.99331033 0.0043382994
1.1016226 0.40479249 0.058752149 10718607 -0.12158388 0.026333442 0.99223185 0.0030862447
1.1332816 0.40671402 0.055540293 10652296 -0.060404204 -0.0038093259 0.9981668 0.0022229734
1.153633 0.40514234 0.058681875 10586503 -0.10241368 -0.0038107969 0.99473464 0.0015557442
0.9647038 0.41570258 0.053166494 9928828 -0.095713794 0.010482675 0.9953537 0.0030092921
0.97427011 0.41535395 0.054050624 10257539 -0.099985652 -0.0036713604 0.99498218 0.0047111395
0.99658108 0.41950977 0.054140478 9994365 -0.097936638 -0.007157784 0.9951669 0.0041505722
1.0045727 0.41491288 0.05500342 10060157 -0.086925313 -0.014454016 0.99611002 0.003500521
1.028975 0.41449523 0.054020643 10389639 -0.07930249 -0.040037308 0.9960463 0.0018595441
1.0457158 0.41381395 0.055954441 10520967 -0.094183221 -0.023344822 0.99528116 0.0017113024
1.0585617 0.419642 0.05291149 10388611 -0.1115365 -0.013841778 0.99366397 0.0034210607
1.0625024 0.41186112 0.05343394 10323848 -0.08533258 -0.027046259 0.99598533 0.0029168807
1.0872136 0.41884834 0.055381298 10455435 -0.074743956 -0.041937929 0.99632049 0.0041840291
1.1028913 0.41334435 0.057346046 10520712 -0.079182982 -0.017246645 0.99671096 0.0040201508
1.1267016 0.41306853 0.058720082 10717837 -0.14156963 0.024831999 0.98961681 0.0042674076
1.1382627 0.41703239 0.054853946 10258308 -0.078505717 -0.032232568 0.99639249 0.0026128034
1.1586292 0.41558018 0.058031142 10586503 -0.10685385 -0.022752723 0.99401444 0.0011631659
0.96533078 0.42758819 0.050447702 10125953 -0.13461781 0.063526094 0.98885924 0.00601702
0.97257119 0.42861918 0.053054571 9929087 -0.1152565 -0.024313627 0.99303818 0.0061130724
0.99736744 0.42733324 0.054378919 9994365 -0.11478662 0.03669294 0.99271226 0.0039195353
1.0050731 0.42669249 0.058639795 10257540 -0.086743556 0.0040969597 0.99622226 0.004685414
1.0254244 0.42497456 0.057429254 9994620 -0.10910507 0.0089481845 0.99398994 0.003062963
1.0356544 0.42728674 0.05098334 9862523 -0.11989943 -0.026349794 0.99243629 0.0029845005
1.0461706 0.42268473 0.053878427 10587786 -0.084209062 -0.055686269 0.99489093 0.0020700039
1.0636194 0.42461687 0.053855821 10257798 -0.097028464 -0.04316939 0.99434495 0.0034639484
1.0869477 0.42527053 0.054313451 10323331 -0.070789516 -0.042437002 0.99658817 0.004525153
1.1059375 0.42732608 0.057001159 10323589 -0.081803776 -0.029836982 0.99620175 0.0036855098
1.1126374 0.42430061 0.053989887 10323072 -0.070044942 -0.032646291 0.99700952 0.0046316176
1.1272875 0.42264208 0.058851421 10455435 -0.1599254 0.0070659686 0.98710382 0.0034310261
1.1350677 0.42417574 0.056306511 10454658 -0.059086725 -0.042821825 0.997334 0.0016865773
1.1554501 0.42290697 0.059461385 10454917 -0.12514009 -0.048485018 0.99095374 0.0014560689
0.94319141 0.43102315 0.050618056 9271413 -0.093431644 0.009111207 0.99558401 0.0026934359
0.97429878 0.43703672 0.053032387 9798013 -0.11324674 0.0055914773 0.99355114 0.0058568814
0.99412143 0.43453097 0.052528217 10126210 -0.09283676 -0.025852017 0.99534565 0.0049954373
1.0054774 0.43789914 0.056313194 9863292 -0.10015517 0.030929299 0.99449098 0.0031078055
1.0131958 0.43307796 0.050091296 10454404 -0.05314422 -0.072388835 0.99595964 0.002003019
1.0272157 0.43529478 0.057584852 10060413 -0.11574462 0.022720365 0.9930191 0.0022379083
1.032867 0.43596688 0.05071345 10324103 -0.091259308 -0.073042534 0.99314481 0.0017411428
1.0467221 0.43169558 0.054002047 10391436 -0.087921239 -0.0610121 0.99425721 0.0020905205
1.0674901 0.43464136 0.054684728 10388872 -0.078593865 -0.091739804 0.99267662 0.0032005045
1.0883521 0.43744799 0.055636466 10389126 -0.065504678 -0.071543969 0.9952842 0.0051171663
1.0910633 0.43247217 0.052360415 10257279 -0.072861791 -0.032225784 0.99682128 0.0040376731
1.1032348 0.43485719 0.058445111 10323332 -0.073284149 -0.055448085 0.99576855 0.0041039353
1.1359607 0.43290657 0.05668965 10257279 -0.060270812 -0.057393003 0.99653077 0.0014790794
1.1563586 0.43178925 0.05985114 10388865 -0.11233715 -0.048440292 0.99248874 0.0019374816
0.97568029 0.4453021 0.053082693 9863808 -0.10892207 -7.4452822e-05 0.99405032 0.0067371894
0.98908281 0.4446848 0.052560806 10126722 -0.053085238 -0.046615891 0.99750131 0.0037338792
0.99747211 0.44387242 0.054424196 9995136 -0.14635801 0.026890501 0.98886621 0.0058187628
1.0004084 0.44208837 0.055287391 9599861 -0.097658761 0.049282033 0.99399906 0.0023393515
1.012135 0.4453871 0.051124632 10322820 -0.068225302 -0.070439123 0.99518019 0.0023399044
1.0256388 0.44326785 0.056885999 10060414 -0.11096875 -0.016198304 0.99369192 0.002115889
1.0472736 0.44070643 0.054125667 10128010 -0.10170258 -0.094299339 0.9903354 0.0025386717
1.0650865 0.44446629 0.054313317 10125954 -0.063495561 -0.044107258 0.99700695 0.0036969832
1.0845568 0.44526538 0.056783065 10191490 -0.080226868 -0.057674427 0.9951067 0.0038522526
1.09602 0.44261196 0.051605493 10322302 -0.088772036 -0.027812583 0.99566364 0.0025013848
1.1073844 0.44525889 0.057503656 10257538 -0.081669368 -0.053675544 0.99521309 0.0038922383
1.1342263 0.44473279 0.058062911 10125950 -0.061807584 -0.063543707 0.99606329 0.001282293
0.97092479 0.45658278 0.05000332 9995134 -0.15997791 -0.02931056 0.9866854 0.013736836
0.9820196 0.45696345 0.05357334 10060930 -0.15489386 -0.012456961 0.98785257 0.011859836
0.99240541 0.45464039 0.051379263 9995138 -0.049126301 -0.040365051 0.9979766 0.0034287614
1.0063077 0.45419082 0.053460982 9863294 -0.10582007 -0.0078665968 0.99435419 0.0039054391
1.0123439 0.45344901 0.057386488 10060931 -0.12426317 0.024130689 0.99195582 0.0032666184
1.0264671 0.45031765 0.054311275 10322820 -0.099076346 -0.081625462 0.9917264 0.001431603
1.0328817 0.45722976 0.057490677 9732217 -0.13372143 0.021702839 0.99078131 0.002181096
1.044435 0.45272768 0.05375275 9929854 -0.12635617 -0.038937945 0.99122047 0.0028686153
1.0636408 0.45410576 0.055657849 9928831 -0.073386058 -0.039139669 0.99653524 0.0038283942
1.0895361 0.45586237 0.054586679 10059900 -0.11711477 -0.022741962 0.99285799 0.0026509345
1.108108 0.45422527 0.057754919 10191490 -0.083648264 -0.065606095 0.99433333 0.0037876237
1.1355624 0.45779496 0.058636099 10060157 -0.082967333 -0.04900723 0.99534655 0.0010839413
0.95216942 0.46343318 0.050710112 10060157 -0.1200494 -0.046534728 0.99167675 0.0092571964
0.96580333 0.46158242 0.052715659 10060159 -0.154846 -0.041845448 0.98705208 0.014058536
0.97629768 0.46554574 0.056765169 10125950 -0.13215794 -0.034041192 0.99064398 0.012395953
0.99725884 0.4638299 0.053839315 10060416 -0.099108435 -0.00067943957 0.99507648 0.0056161676
1.011966 0.46365446 0.055192843 10126211 -0.11235099 -0.010002566 0.99361825 0.0037545711
1.0272804 0.46360573 0.054493576 10323331 -0.14371426 -0.081730746 0.98623848 0.0023691719
1.0312051 0.46495068 0.059005708 10257789 -0.13686718 -0.018922893 0.99040866 0.0042403974
1.0452582 0.46348017 0.054021433 9930114 -0.13650194 -0.035395056 0.99000728 0.0029270076
1.0663916 0.46368206 0.055325687 9994878 -0.071175121 -0.047127098 0.99634993 0.0033220255
1.0815634 0.46149847 0.059599936 10191493 -0.048949126 -0.1362064 0.98947048 0.0057362895
1.0928735 0.46932998 0.054577738 9994106 -0.11098175 0.0058021434 0.99380559 0.0030684818
1.1074126 0.46458489 0.058812708 10125438 -0.086697742 -0.045853425 0.99517888 0.0044039334
1.136453 0.46650308 0.059018195 10060157 -0.091149747 -0.031944666 0.99532467 0.0018612585
0.95328975 0.47506598 0.051046863 9929597 -0.14440516 0.01436901 0.98941433 0.01053479
0.97344911 0.47444177 0.051046014 10060673 -0.115803 -0.010387098 0.99321789 0.0087710833
0.98000902 0.47493914 0.055775672 10060157 -0.12852971 0.009452749 0.99166059 0.0093380995
0.99232471 0.47548613 0.052324325 10060930 -0.092857577 -0.0056560063 0.99566334 0.0042171385
1.0005912 0.47625765 0.055361778 10191232 -0.11733352 0.028236877 0.99269104 0.0087343995
1.0112071 0.47468475 0.052823275 10060677 -0.10544697 -0.049411472 0.99319661 0.0029777207
1.0246511 0.47707599 0.054956317 10191488 -0.16031 -0.017008182 0.98692018 0.0037641444
1.0320067 0.47327441 0.059246689 10060410 -0.13072351 -0.0056568645 0.99140275 0.0055106897
1.0419592 0.47314188 0.057914525 9930885 -0.13293158 -0.094061263 0.98665178 0.0017173267
1.0634161 0.47274607 0.058083475 9930117 -0.069740303 -0.082741819 0.99412781 0.0034649742
1.0707647 0.47193623 0.05305329 9928826 -0.11200155 0.031273171 0.99321586 0.0027932632
1.0847722 0.47643372 0.058795482 10060420 -0.069333546 -0.097887084 0.99277943 0.0050141774
1.1373438 0.4752112 0.05940032 9928571 -0.099266656 -0.044261459 0.99407595 0.0020895407
0.97396797 0.48817956 0.050918072 9863803 -0.13548386 0.0784906 0.98766565 0.0057289959
0.98634362 0.48531657 0.054631606 9929342 -0.10898712 0.021296412 0.993815 0.0046514263
1.001371 0.48435393 0.055596203 10059646 -0.12970355 0.049830582 0.99029994 0.0063851546
1.0151063 0.482131 0.05821687 10060159 -0.16321047 0.016321573 0.98645627 0.0056676473
1.028636 0.48575273 0.054797441 10191232 -0.18934447 -0.045931295 0.98083586 0.0016715818
1.0360496 0.48538756 0.059647053 9995134 -0.15465526 -0.027789893 0.9875775 0.0050382335
1.0425069 0.48209187 0.058037311 10259080 -0.15132804 -0.086582929 0.98468435 0.0022455747
1.0550164 0.48857594 0.050902992 9798010 -0.14168034 0.054338761 0.98842001 0.002751149
1.0720252 0.48426011 0.053594068 9928567 -0.11267561 0.035800137 0.99298668 0.0021166489
1.0962169 0.48285818 0.05457139 9994107 -0.10800128 0.039852563 0.9933517 0.0021107236
1.1146563 0.48238876 0.057708323 9928314 -0.13843134 0.018987544 0.99019003 0.0038342793
0.95653617 0.49739668 0.052126795 9797755 -0.075133361 -0.0021044652 0.99717128 0.0050963308
0.97684324 0.4936353 0.050596848 9994877 -0.11490422 0.039879296 0.99257576 0.0048094494
0.99181128 0.49608552 0.052723035 9929085 -0.11185583 0.0083368346 0.99368948 0.0043516546
1.0080611 0.49543622 0.053438872 9994368 -0.15141135 0.043738205 0.98750275 0.0073847957
1.0136819 0.49288562 0.052424669 9994884 -0.1085285 -0.039849032 0.99329436 0.0041419193
1.0241101 0.49323457 0.056153849 10060417 -0.15495567 -0.0058123278 0.98790431 0.0051625404
1.0589336 0.49817657 0.050378799 9995389 -0.12492189 0.045814361 0.9911083 0.0017670096
1.0794654 0.49956313 0.052420229 9600376 -0.11661456 0.046588827 0.99208391 0.002233061
1.1011924 0.49317971 0.053824455 9797240 -0.13516206 0.046127591 0.98974919 0.0036990142
1.1196454 0.49281466 0.056996346 10059900 -0.15962237 0.0013261624 0.98717731 0.0040253513
0.9607687 0.50779849 0.050455004 9797755 -0.125478 -0.014392722 0.991992 0.0063828919
0.97548956 0.50397795 0.051375449 9928826 -0.14077237 0.099629998 0.98501629 0.0046222131
0.98000026 0.50822502 0.050280601 9863550 -0.10376693 -0.023906259 0.99431431 0.0055726445
0.99246073 0.50439584 0.052898094 9928827 -0.11135385 0.025770575 0.99344665 0.0038275649
1.0029305 0.50054651 0.056064993 9928571 -0.14372613 0.045127142 0.98858809 0.0062729255
1.0130806 0.50529116 0.05324319 9929343 -0.15145454 -0.06246829 0.98648834 0.0042021805
1.0247774 0.5017727 0.05633381 9929343 -0.15185818 -0.0097102914 0.98835462 0.0051913657
1.0401096 0.5025565 0.059990019 9929858 -0.17624803 -0.0040233978 0.98433757 0.001960597
1.0844332 0.50984079 0.051640987 9534838 -0.10644104 0.02359321 0.99403906 0.001848674
1.1092635 0.50502747 0.052244574 9600629 -0.14777224 0.024435515 0.98871952 0.00430999
1.1236109 0.50282061 0.056558281 9862778 -0.16163987 0.0098287724 0.98680085 0.0037148199
0.96128154 0.51617831 0.050569952 9797755 -0.12045709 0.006311242 0.99269849 0.0056537972
0.97678924 0.5146901 0.052155256 9863550 -0.086192973 -0.0124787 0.99620032 0.0034674155
0.99610007 0.51500165 0.052207381 9732223 -0.13427658 -0.0034033379 0.99093807 0.0083178217
1.0066586 0.51446199 0.055995241 9994364 -0.12763396 0.0049985517 0.99180877 0.0057428321
1.0136158 0.51403588 0.053363144 9994884 -0.1435148 -0.071479917 0.98706341 0.0038125119
1.0253559 0.5130322 0.05648585 9863034 -0.144642 0.023341639 0.9892087 0.0052140579
1.0399711 0.51691109 0.058917522 8679786 -0.16176841 0.046556678 0.98572993 0.0054853871
1.0996528 0.51644886 0.056045383 9403250 -0.14105812 0.033870574 0.98942178 0.0037789543
1.1029165 0.51003557 0.054564089 9534838 -0.14763151 0.038773913 0.98828208 0.0041398592
1.1249284 0.515701 0.057123482 9666167 -0.15343614 0.01591415 0.98803043 0.0035772419
0.9617945 0.52455801 0.050684929 9797755 -0.1289911 0.015807467 0.99151975 0.0054593608
0.97730863 0.52317625 0.052271694 9863548 -0.10505686 0.033939715 0.99388689 0.0053600292
0.99382055 0.52208692 0.053622723 9797757 -0.11551947 0.025638746 0.99297428 0.0091200573
1.0291948 0.52460825 0.056180716 9929340 -0.11928403 0.0077801403 0.99282968 0.0045118956
1.0444956 0.52682173 0.058330372 9075058 -0.14501892 0.030334905 0.98896372 0.0048201531
1.1262459 0.52858156 0.057688683 9534066 -0.14145529 0.040795173 0.98910379 0.0035122652
0.96230745 0.53293771 0.050799906 9862778 -0.13255082 0.10344023 0.98576391 0.0044462895
0.98156416 0.53377479 0.050631136 9863548 -0.106275 0.055097554 0.99280912 0.005832721
0.99461019 0.53498733 0.053799748 9666427 -0.12164054 0.063164413 0.99056238 0.0063538128
1.0111992 0.53383309 0.055363774 9994111 -0.14865625 0.045896966 0.98782325 0.005441423
1.0457939 0.53579205 0.058774054 9734017 -0.12619372 0.026803039 0.99164343 0.0046051936
1.0157568 0.54901475 0.053843051 9994107 -0.16301636 0.070580825 0.98409557 0.0059029763
1.0286653 0.54568535 0.057320178 9928571 -0.14127104 0.041114781 0.98911685 0.0056020394
1.050117 0.54678947 0.057252973 9668224 -0.14555177 0.0275752 0.98896629 0.0031628043
1.0003495 0.55487633 0.05187574 9666427 -0.13771893 0.074949086 0.98763156 0.004866241
1.0162921 0.55775946 0.053963035 9797757 -0.16138075 0.11357493 0.98033512 0.0052814018
1.032974 0.55662292 0.055769742 9731962 -0.13357018 0.080150709 0.98779297 0.0053091641
1.0196482 0.56813246 0.052808642 9797757 -0.16488737 0.10212518 0.98101103 0.0049192221
1.0335162 0.56548172 0.055891275 10061182 -0.15086412 0.10175024 0.98330408 0.0044135661
1.0416025 0.57868063 0.052671432 9732217 -0.16684918 0.064807206 0.9838503 0.0039252709
1.0517662 0.57373083 0.057622612 9667709 -0.15147157 0.08044453 0.98518276 0.0042372681
1.0523157 0.58271122 0.057745814 9536123 -0.15109445 0.084297754 0.98491848 0.0035980435
1.4772129 -1.0505431 0.065523893 15591662 -0.10084948 -0.028339915 0.99449801 0.0020562543
1.4635684 -1.0284169 0.068986118 15459563 -0.10491715 -0.0323998 0.99395305 0.0025772133
1.4648217 -1.0161649 0.069523752 15394283 -0.10639162 -0.037124176 0.99363106 0.003014988
1.4137137 -1.0085599 0.065900773 15459564 -0.11664189 -0.030032223 0.99271989 0.0036466112
1.4214456 -1.0009584 0.065091223 15327978 -0.11670063 -0.030011194 0.99271363 0.0036374307
1.4735422 -1.0086683 0.068607062 15393770 -0.10621601 -0.037182871 0.99364763 0.003039299
1.4291883 -0.99325067 0.064286351 15393770 -0.11317629 0.0054635629 0.9935599 0.0044222567
1.4748017 -0.99635577 0.069147348 15262184 -0.10910642 -0.035401452 0.9933995 0.0030249034
1.4378746 -0.986031 0.063296765 15196391 -0.12803435 0.010673758 0.99171233 0.0042043608
1.4521739 -0.98220873 0.061178327 15196391 -0.13348328 0.0074266088 0.99102324 0.0043081818
1.440336 -0.96196622 0.064352751 15196645 -0.11452874 0.010817852 0.99336106 0.0051283976
1.3836194 -0.95155144 0.062485844 15327207 -0.095743574 -0.032263368 0.99488306 0.0013686726
1.3694245 -0.94662958 0.069501102 15328490 -0.080006838 0.076178081 0.99387914 0.0033507186
1.4340863 -0.94536346 0.066387683 15261668 -0.099037796 -0.014641888 0.99497598 0.0048506088
1.3172431 -0.93038899 0.06219846 15262184 -0.07601402 0.01799904 0.99694431 0.0031421261
1.3332473 -0.93832034 0.068875909 15656942 -0.069498658 0.050272204 0.99631453 0.0037665172
1.3782765 -0.93584841 0.064371139 15064035 -0.11514899 -0.028987112 0.99292523 0.0017896711
1.4427974 -0.93790144 0.065408736 15130852 -0.10861377 -0.020835878 0.99386567 0.0051682699
1.4571402 -0.9336552 0.063308895 15195875 -0.13379851 -0.022608712 0.99075067 0.0050820974
1.3339543 -0.92676973 0.069034398 15525356 -0.053635124 0.03416907 0.99797583 0.0038783569
1.3859925 -0.92834985 0.063503921 15065059 -0.10459726 -0.028413158 0.99410874 0.0018580274
1.3937193 -0.92074537 0.062641382 15327461 -0.10547056 -0.022523915 0.99416733 0.0022094238
1.4583819 -0.9215169 0.063841552 15130082 -0.13231012 -0.018430084 0.99103701 0.0052569965
1.2703321 -0.91702574 0.06996578 14669278 -0.10643654 0.060169388 0.99249738 0.0021870972
1.2830123 -0.91087991 0.06222865 15591149 -0.088664718 -0.015702618 0.99593776 0.0024790599
1.3050923 -0.91093093 0.066820025 15459563 -0.071913667 0.0034836477 0.99740475 0.0028510955
1.340188 -0.91860634 0.06732294 15590380 -0.049205482 0.021867964 0.99854928 0.0040910062
1.3780661 -0.91504914 0.067856938 15459564 -0.059231885 0.029756345 0.99780071 0.0037182665
1.251698 -0.90991604 0.067883521 15327724 -0.14178839 -0.021549782 0.98966241 0.0014413062
1.3408978 -0.90701002 0.067482024 15459563 -0.048403233 0.0085832141 0.99879098 0.0037739903
1.3787922 -0.90318674 0.068019658 15327208 -0.054120421 0.018266667 0.99836731 0.0031953175
1.3949114 -0.90909159 0.06315276 15261668 -0.099011898 -0.001906611 0.99508446 0.0020094295
1.4530565 -0.90559143 0.065683424 14998496 -0.11588725 -0.018983288 0.99308097 0.0031169425
1.223079 -0.89174986 0.065835685 15130599 -0.14937663 -0.03572055 0.98813498 0.0017228934
1.252219 -0.89609659 0.064963475 15261928 -0.1149964 0.01962309 0.99317205 0.0022014424
1.2777224 -0.89754033 0.067149147 14999013 -0.099553019 0.024387699 0.99473333 0.0027070488
1.3002762 -0.89619988 0.068888366 15393771 -0.072646864 0.0056897313 0.99734151 0.0029660629
1.3360753 -0.89211786 0.069509804 15328490 -0.046961371 0.018665647 0.99872231 0.0036862476
1.3961034 -0.89743793 0.063664138 15130082 -0.10799225 0.01395099 0.9940539 0.0023591337
1.2285142 -0.88918513 0.06572783 14537692 -0.09600997 0.043731581 0.99441928 0.001957766
1.234264 -0.88197833 0.065331101 14603485 -0.095910832 0.043811265 0.9944253 0.0019645174
1.253077 -0.88518614 0.065195754 15064549 -0.112591 0.023703873 0.99335861 0.0028214606
1.2843835 -0.88847834 0.062535971 15327978 -0.096020699 0.027092967 0.99501055 0.0028868674
1.3064812 -0.88824028 0.067131281 15393000 -0.06522698 0.0093536088 0.99782664 0.0036080035
1.390739 -0.88194692 0.065540135 15064289 -0.089028321 0.0061773285 0.99600995 0.0029166692
1.4477204 -0.889772 0.067520678 14998494 -0.11186634 -0.014486689 0.99361771 0.0030527283
1.199991 -0.8772521 0.062395692 14999013 -0.13406341 -0.057131287 0.98932451 0.0023002832
1.2064403 -0.87039965 0.060875863 15064806 -0.13505182 -0.056579985 0.98922181 0.0025082906
1.2186506 -0.87751788 0.067921191 15130599 -0.12869003 -0.055421717 0.99013495 0.0016734976
1.2296734 -0.87345833 0.064970702 15196904 -0.12896417 -0.053804018 0.99018854 0.0018291288
1.2850691 -0.87727743 0.062689692 15524586 -0.081230558 0.038302403 0.9959591 0.0034982653
1.3071758 -0.87689489 0.067286968 15195621 -0.067378014 0.033517446 0.99716437 0.0029540581
1.3494881 -0.87596023 0.06578064 15524329 -0.041549146 0.052438959 0.9977594 0.0026625441
1.3919255 -0.87034619 0.066049188 14801887 -0.094045185 0.0046968278 0.99555689 0.0025019909
1.4414335 -0.87353271 0.069539696 14997983 -0.094855011 0.00020432845 0.99549109 0.0034316024
1.1733574 -0.86034161 0.060543478 14999013 -0.13570584 -0.072444573 0.98809707 0.0019380501
1.2306745 -0.86861551 0.066388428 14275036 -0.10859591 -0.017816139 0.99392635 0.001121272
1.2471416 -0.86786747 0.064214349 14932452 -0.092222698 0.050547663 0.99445456 0.0017485325
1.259191 -0.86354393 0.060183406 15130860 -0.11775212 0.02618181 0.99269778 0.0061179888
1.2857547 -0.86607665 0.062843353 15262185 -0.082428038 0.034619655 0.99599552 0.0050893091
1.2986076 -0.86661184 0.068870008 14735070 -0.11900552 0.04468156 0.99188775 0.0014316273
1.3078701 -0.86554968 0.067442596 15130599 -0.074630536 0.062392354 0.99525756 0.0025949781
1.343737 -0.86062509 0.068118423 15130345 -0.058034867 0.032447077 0.99778718 0.0044432385
1.3587624 -0.86324972 0.060618609 14933219 -0.12134228 -0.055686496 0.99104744 0.0026336964
1.4128141 -0.86993903 0.062478334 14998496 -0.082387581 0.0051839505 0.99658692 0.0021449437
1.1743445 -0.85009241 0.060840189 14867688 -0.14219436 -0.078559868 0.98671639 0.0022779761
1.1943231 -0.85572654 0.061406732 14341344 -0.10399645 -0.044593126 0.99357748 0.0022388988
1.2020047 -0.85634422 0.063000977 14801380 -0.11764146 -0.060840979 0.99119067 0.0030055174
1.2261499 -0.85986495 0.066758782 15130598 -0.11806528 -0.052419659 0.99162132 0.002359757
1.2478162 -0.85753173 0.064734161 14274007 -0.092056371 -0.0027780086 0.99574995 0.0016380533
1.2598655 -0.85252565 0.060334563 14868456 -0.12727264 0.032022387 0.99135071 0.0060050697
1.2864403 -0.85487574 0.062997013 15000044 -0.068062961 0.016451344 0.99754536 0.0050242646
1.3150067 -0.85794139 0.065369695 14999790 -0.022268923 0.040427081 0.99893433 0.0031192063
1.3221498 -0.85022658 0.063298285 10653327 -0.032946739 0.029888937 0.99901015 0.0025273822
1.3599234 -0.85189885 0.061116666 13945295 -0.11035931 -0.060010102 0.99207842 0.0029453905
1.388186 -0.85931814 0.066544056 12892617 -0.10874388 -0.042797901 0.99314809 0.0097936662
1.414017 -0.85817939 0.062994361 14142674 -0.079417594 0.0055793305 0.99682587 0.0019557457
1.421798 -0.85004467 0.062155068 13747916 -0.077419341 -0.00021020323 0.99699861 0.002206313
1.458001 -0.85724992 0.067804694 14208208 -0.12816827 -0.0062547736 0.99173272 0.0021931785
1.1953738 -0.8457219 0.06172803 13287114 -0.10402648 -0.044613231 0.99357343 0.0022403193
1.2271736 -0.84923667 0.067066491 15130599 -0.10427494 -0.049066633 0.99333739 0.0027862631
1.2432863 -0.84361392 0.065934956 12497849 -0.1079199 -0.050642841 0.9928689 0.0015399465
1.2816201 -0.84047341 0.06510359 8348276 -0.10554452 -0.007294328 0.99438787 0.0052718148
1.354506 -0.84862608 0.065092027 14142413 -0.14333698 -0.023113087 0.98940408 0.0076013282
1.3610845 -0.84054804 0.061614782 13550537 -0.12834288 -0.045445275 0.99068803 0.0032117823
1.3824226 -0.84387475 0.068833381 15786468 -0.12236689 -0.023373283 0.99220967 0.010079582
1.4592372 -0.8451646 0.068335027 13879243 -0.12554184 -0.02037026 0.99187917 0.0019945286
1.1753317 -0.83984309 0.061136931 12826052 -0.127442 -0.058968097 0.99009162 0.0029597683
1.1923834 -0.8360855 0.064725921 13222091 -0.11395898 -0.054546095 0.99198693 0.0025568476
1.2227277 -0.83518666 0.069146723 11576496 -0.09737362 -0.053365916 0.99381614 0.0024280588
1.2443744 -0.83325338 0.066267684 14537943 -0.097606987 -0.061182912 0.99334258 0.0012644525
1.3020079 -0.83423507 0.069909781 15130080 -0.098444641 -0.034363091 0.99454916 0.0024934877
1.3228507 -0.83877474 0.063455403 15919596 -0.026162684 0.015604898 0.99953592 0.0020098188
