# .PCD v0.7 - Point Cloud Data file format
VERSION 0.7
FIELDS x y z rgb normal_x normal_y normal_z curvature
SIZE 4 4 4 4 4 4 4 4
TYPE F F F U F F F F
COUNT 1 1 1 1 1 1 1 1
WIDTH 543
HEIGHT 1
VIEWPOINT 0 0 0 1 0 0 0
POINTS 543
DATA ascii
2.5245512 -0.29405224 0.32776302 10984369 -0.99102134 0.08119043 -0.10623002 0.0087963277
2.4978659 -0.28087863 0.32263994 1906481 -0.92406005 0.32968214 -0.19344969 0.091833562
2.5159795 -0.26368821 0.32284591 6182258 -0.95467699 0.034463115 -0.29564211 0.086864948
2.531215 -0.25281525 0.32041073 12369096 -0.97418779 0.15183981 -0.16704147 0.061088547
2.4973831 -0.24317862 0.32471246 7300230 -0.94656295 -0.13552144 -0.29266468 0.049541526
2.5319211 -0.23354879 0.32109132 12565960 -0.94998384 0.18798316 -0.24938534 0.05560175
2.4971418 -0.22432859 0.32574874 8615837 -0.95512855 -0.092204913 -0.28147429 0.037579406
2.5326276 -0.21428229 0.32177192 12368835 -0.96421176 0.14600328 -0.22131136 0.041967776
2.5152502 -0.20672743 0.3259773 9075109 -0.93776083 0.20763958 -0.27837104 0.033477157
2.5296419 -0.19773325 0.32861304 9734066 -0.96373498 0.033816144 -0.2647101 0.038172442
2.5333338 -0.19501582 0.32245252 12237249 -0.95487553 0.012528855 -0.29674196 0.046728007
2.515007 -0.18774052 0.32702109 9273769 -0.95343715 0.1823668 -0.24020816 0.037965834
2.5323501 -0.17710941 0.32595807 10985145 -0.96853411 0.015966177 -0.24836837 0.054981291
2.5331101 -0.16972856 0.3272723 9604274 -0.95653933 0.14671925 -0.25200406 0.035780754
2.5164933 -0.1556619 0.32389006 12039616 -0.9707399 0.095707864 -0.22023618 0.085653901
2.5316782 -0.15920568 0.32895303 9601705 -0.98141533 -0.041875247 -0.18727107 0.04415331
2.5145209 -0.14976667 0.32910874 10854341 -0.94972998 0.17533396 -0.25936666 0.03843328
2.5340748 -0.13857913 0.32680866 10655921 -0.99172348 -0.1001518 -0.080338098 0.074125446
2.5155516 -0.12010596 0.32850039 8614299 -0.98543245 -0.16878878 0.020815456 0.028664347
2.5361593 -0.11794991 0.3251749 11907769 -0.96062171 -0.27772072 -0.008786723 0.087350145
2.5165625 -0.10097911 0.32866919 8680862 -0.99339801 -0.1116391 0.026404979 0.027066773
2.5185974 -0.098273359 0.3259173 11775668 -0.94870794 -0.31507802 -0.026060704 0.090887964
2.5175734 -0.081852265 0.32883796 8088976 -0.99805814 0.045941744 0.042063639 0.012379315
2.5010252 -0.078870721 0.32665005 11380910 -0.93224114 0.11796915 -0.34206685 0.073432505
2.5185843 -0.062725425 0.32900676 8089744 -0.99556452 0.094072759 0.0012932719 0.019809704
2.52 -0.06001433 0.32726884 11314604 -0.96811152 0.17105998 -0.1830264 0.047519282
2.5052652 -0.040257622 0.32044938 984362 -0.9737789 -0.11554341 -0.19597065 0.076987289
2.5195951 -0.043598581 0.32917553 7957141 -0.9852553 0.15997249 -0.06067038 0.022003977
2.5207012 -0.040884823 0.32794458 11708335 -0.98922974 0.14627928 0.0051819682 0.036880538
2.4883318 -0.021523055 0.32179549 1115948 -0.97884107 0.12320326 -0.16337444 0.08220581
2.5210042 -0.02311353 0.32898235 9603228 -0.99357647 0.11278813 0.0092009231 0.017135197
2.5084682 -0.0026395209 0.32111165 918567 -0.95372707 0.29212752 -0.071178228 0.06574478
2.5221038 -0.0026258058 0.32929608 11445420 -0.99567974 -0.04430528 0.081602067 0.020913247
2.5257163 0.016510451 0.32520229 6248043 -0.98097521 0.18045807 -0.07157141 0.034725215
2.5302408 0.035462901 0.32076624 787750 -0.88215035 0.45143968 -0.13421281 0.034698635
2.5259595 0.041599389 0.32023358 1442334 -0.86666918 -0.37802362 -0.32554984 0.059363201
2.5504355 0.055029519 0.3200945 787750 -0.95506597 0.037583843 -0.29400092 0.060297236
2.5074213 0.060048178 0.32212046 1311005 -0.9720028 -0.081399754 -0.2204192 0.088095658
2.5254698 0.07984709 0.32233626 1246241 -0.98325586 0.17385511 -0.054610763 0.036091801
2.5520604 0.074111857 0.32043037 788008 -0.94681466 -0.2102887 -0.24355838 0.060681406
2.5164754 0.091405749 0.32276723 853544 -0.92925131 -0.15862885 -0.33365998 0.095983937
2.5252249 0.098970927 0.32338762 1180709 -0.97901684 0.18126822 -0.093101248 0.0265618
2.5180769 0.1102148 0.32309833 656165 -0.97841346 -0.023678107 -0.20529619 0.095979661
2.5249801 0.11809478 0.32443893 1311784 -0.99695086 0.045854997 -0.063137628 0.026358262
2.5247352 0.13721862 0.3254903 1311525 -0.99256778 -0.042442635 0.11405191 0.019788973
2.538306 0.13019127 0.32243386 918566 -0.95139879 0.30664709 -0.028424174 0.042439513
2.5399191 0.1491369 0.32276741 917540 -0.97551012 0.19760503 -0.09660396 0.053600926
2.5244904 0.15634246 0.3265416 1443622 -0.98458874 -0.044664655 0.16908605 0.011516003
2.5415323 0.16808259 0.32310089 1246505 -0.98815781 0.023875223 -0.15157245 0.054480303
2.5242455 0.17546633 0.32759297 787750 -0.99342775 -0.037778068 0.10804728 0.022610806
2.5244827 0.18545094 0.32442281 1114918 -0.97273356 0.14145015 -0.18379694 0.056439742
2.5240009 0.19459017 0.32864428 787748 -0.99788797 -0.053103872 0.037411291 0.025795836
2.5260842 0.20425999 0.32475391 1246756 -0.95897424 0.14454859 -0.24387327 0.054155882
2.523756 0.21371402 0.32969564 722722 -0.9976905 -0.057497565 0.036162768 0.024526963
2.5463715 0.22491959 0.32410148 917789 -0.9589873 0.14524071 -0.24341035 0.05370567
2.5479846 0.24386528 0.32443503 1180961 -0.95993358 0.18518662 -0.21031764 0.047781549
2.5495977 0.26281098 0.32476851 1312288 -0.95751894 0.24927048 -0.14498901 0.037551295
2.5292883 0.28510487 0.32058725 5722475 -0.97015411 0.2381863 -0.045479268 0.014520322
2.569932 0.28401712 0.32412562 1574946 -0.97549117 0.17787114 -0.12953365 0.037574947
2.5483394 0.30670619 0.32116783 5920367 -0.97946894 0.18418022 -0.081964567 0.019626826
2.5715568 0.30309948 0.32446155 1771299 -0.98220432 0.11126325 -0.15131187 0.035532344
2.5544369 0.319648 0.3257691 1639970 -0.9810394 -0.0088024419 -0.19360855 0.044527292
2.5490458 0.32597265 0.32184842 6446452 -0.9945991 0.0955396 -0.040557399 0.039763551
2.5497522 0.34523916 0.32252902 5788521 -0.9987728 0.049236141 -0.0053618401 0.035347849
2.5748062 0.3412641 0.32513335 1771299 -0.97549146 -0.064039916 -0.21051213 0.041901629
2.557663 0.35753933 0.32643613 2099240 -0.95609593 -0.047093045 -0.28924525 0.05368666
2.5504584 0.36450565 0.32320961 5985900 -0.998649 -0.051820405 -0.0038411319 0.040614583
2.5592761 0.37648496 0.32676968 2298418 -0.93348664 -0.012275651 -0.35840213 0.038568985
2.5511649 0.3837721 0.32389021 5854314 -0.98882991 -0.14844558 -0.013394625 0.038887642
2.5334961 0.3998819 0.32464176 6446452 -0.98883438 -0.14832926 -0.014318794 0.038929548
2.5608892 0.39543065 0.32710317 2101043 -0.92511809 -0.061616685 -0.37464654 0.047387563
2.5367846 0.40846223 0.32228756 2165008 -0.91827536 0.3886084 0.075854227 0.02087809
2.5341976 0.41901147 0.32531753 5656936 -0.99651748 -0.032670092 -0.07671807 0.037288845
2.5625024 0.41437635 0.32743672 2101041 -0.90635979 -0.20715187 -0.36823905 0.034309618
2.534833 0.42832541 0.32183114 2755345 -0.99466008 0.092290543 0.046193693 0.02528475
2.5453014 0.42996851 0.32872733 2100525 -0.89796889 -0.23682883 -0.37089613 0.039747335
2.5348988 0.43814093 0.32599327 6577268 -0.96634322 0.21042605 -0.14799228 0.035382655
2.5588658 0.43007508 0.32641631 1902866 -0.86118269 0.50566739 0.051623635 0.036220334
2.5345864 0.44758624 0.32289001 2821399 -0.997765 0.040951084 -0.052801475 0.022624012
2.5469029 0.44877759 0.32905844 2428459 -0.90668392 -0.18652673 -0.37832797 0.06369859
2.5792704 0.45256314 0.32903343 2165779 -0.94853455 0.31229305 0.052491434 0.031564187
2.5343399 0.46684697 0.32394889 2624536 -0.99502349 0.0020010527 -0.09962061 0.021448188
2.5485044 0.46758655 0.32938954 2429228 -0.93943334 0.077491999 -0.33385614 0.070495866
2.5548387 0.46367896 0.32360667 4075583 -0.98822272 0.1462758 -0.044936273 0.033400923
2.5812247 0.47161576 0.32929111 1968913 -0.98358828 0.17687263 -0.035640284 0.041500699
2.5340931 0.48610777 0.32500777 2493202 -0.99507934 0.00056485645 -0.099080443 0.021027923
2.5546966 0.48010445 0.32729319 6116716 -0.99203604 0.10269717 -0.072923377 0.060862519
2.5646865 0.48682359 0.32718375 1968913 -0.99438381 -0.01948766 -0.10402471 0.035860635
2.5554028 0.49937099 0.32797378 6247789 -0.99550897 -0.0089662401 0.094242059 0.037511848
2.5338466 0.50536859 0.32606658 2558997 -0.98575592 -0.084073126 -0.14566052 0.03725414
2.5851333 0.50972086 0.32980642 2099984 -0.97938734 0.092792049 -0.17941609 0.038956262
2.5561092 0.51863742 0.32865435 6379375 -0.99197835 0.088181347 0.09057083 0.023486592
2.5336001 0.52462935 0.32712546 2427668 -0.99750531 0.033052143 -0.062376026 0.029392757
2.5721807 0.52805042 0.32943782 2954800 -0.92679912 0.12394889 -0.35451394 0.035115119
2.5568154 0.5379039 0.32933494 6247789 -0.9934417 0.081967779 0.079717681 0.023208341
2.5333533 0.54389012 0.32818434 2493715 -0.98970169 0.091268204 -0.11027601 0.038581572
2.5578473 0.54422617 0.32175404 1705992 -0.95855808 0.28311661 0.031803191 0.033158071
2.5737939 0.54699612 0.32977137 3349810 -0.92649883 -0.01202365 -0.37610555 0.055157799
2.5392718 0.5591566 0.32044783 1903120 -0.97104496 0.23699164 0.030112168 0.047432292
2.5523348 0.56762856 0.32842731 2493461 -0.97171384 0.23510826 -0.02227746 0.036452111
2.5398078 0.5784384 0.32073402 1771282 -0.99297279 0.11530185 0.026656048 0.042645909
2.5520864 0.58703387 0.32949412 2493202 -0.96664762 0.20333892 -0.15571031 0.043287531
2.5403438 0.59772021 0.32102019 1771280 -0.9899835 0.14088511 -0.0091715632 0.032420345
2.5782685 0.61923689 0.32897446 2493980 -0.97917634 0.098473199 -0.17752931 0.042999461
2.5600069 0.62193239 0.32290733 1443083 -0.96013403 0.2794477 0.0071845502 0.034998938
2.5802088 0.63815302 0.32923028 2428187 -0.9616456 0.078979805 -0.26267856 0.062891833
2.5605469 0.64135891 0.32319564 1574669 -0.93975067 0.33746901 -0.054619677 0.02898265
2.5802219 0.66600513 0.32508922 1705741 -0.93942767 0.31301647 -0.13962942 0.032922592
2.5673838 0.68955624 0.32761246 2756635 -0.86263829 -0.012092927 -0.50567693 0.092929885
2.580766 0.68557638 0.32537967 1771019 -0.91837561 0.3446303 -0.19446404 0.020773064
2.5693099 0.708336 0.32786644 2428440 -0.87102777 0.15664975 -0.46558726 0.094071321
2.5813098 0.70514756 0.32567015 1705226 -0.93650037 0.32279375 -0.13700807 0.036074642
2.601001 0.73037249 0.32757232 1508358 -0.957376 0.26519334 -0.11447144 0.031601578
2.6015489 0.75008839 0.32786492 1508613 -0.97212094 0.20645311 -0.11116648 0.031542756
1.9950738 0.76552033 0.32440856 5911332 -0.020602487 -0.96636391 0.25635204 0.016473267
2.0597281 0.76937205 0.32951319 5715503 0.018487524 -0.98814726 0.15239191 0.025909672
2.0971372 0.76019281 0.32857981 6047818 -0.12360757 -0.97608203 0.17884362 0.028155029
2.602097 0.76980442 0.32815754 1508613 -0.99388576 -0.098779656 -0.049333118 0.039072841
1.9064978 0.77917254 0.32171094 6042664 -0.050221946 -0.94982445 0.3087253 0.024832517
1.9582974 0.7735641 0.32253128 5582626 -0.081803426 -0.96675324 0.24227352 0.023840711
1.9828231 0.77599823 0.32592261 6042918 -0.043126699 -0.96639556 0.25341612 0.019388236
1.9952476 0.77476531 0.32679605 5386019 -0.043359149 -0.97562075 0.2151373 0.025050994
2.0155213 0.7762118 0.3221001 5385511 -0.011765085 -0.96441597 0.26412767 0.018804392
2.0243785 0.77037418 0.32770556 5648423 -0.10543304 -0.99076492 0.085257247 0.02594794
2.0986941 0.7753728 0.32878509 5583155 -0.14001431 -0.97707319 0.16038702 0.029673507
1.7211108 0.78158414 0.32003129 5385237 -0.92062867 -0.38854113 0.038453355 0.14249015
1.7362087 0.78664035 0.3244133 5715226 -0.47877058 -0.8777374 -0.018863447 0.11519929
1.7694769 0.78820103 0.32953054 5515544 0.030002125 -0.98739755 0.15538959 0.037686501
1.77573 0.7872588 0.32811558 5319965 -0.06875582 -0.95382452 0.29238918 0.035984695
1.7987145 0.78760237 0.32701573 5516057 0.05315008 -0.97614408 0.2105179 0.0088967122
1.8274136 0.78580695 0.32375649 5057051 0.017770642 -0.97140259 0.23677246 0.012360264
1.8563082 0.78827703 0.32461593 4860443 -0.063049786 -0.94571149 0.31883293 0.007448154
1.8862593 0.78749639 0.32793093 4926236 0.01658424 -0.95539761 0.29485664 0.0079755709
1.8968954 0.78887218 0.32127753 6042401 -0.013325907 -0.95064992 0.30997944 0.022185417
1.900049 0.78906822 0.32482564 5189402 0.0019612645 -0.96013325 0.27953589 0.0099286176
1.9291612 0.78860569 0.32987168 5123354 -0.014625818 -0.94866467 0.31594545 0.017190881
1.9302448 0.78377867 0.32881808 5187357 -0.039755687 -0.92350799 0.38151354 0.0072679715
1.949345 0.78605771 0.32014447 5386526 -0.033684105 -0.97648007 0.21296027 0.010112323
1.9595346 0.7874732 0.32448298 5779492 -0.079671927 -0.95937282 0.27065864 0.027706856
1.9713598 0.78797811 0.32753003 5779233 -0.041631274 -0.95501965 0.29360554 0.017626442
1.9822929 0.78514403 0.32353872 5452319 -0.080420867 -0.96753246 0.23961113 0.014638191
1.993485 0.78169441 0.32392126 5517094 -0.014531143 -0.9613902 0.27480513 0.019158071
2.0162375 0.7841391 0.32703486 5255452 0.0022257776 -0.97093171 0.23934652 0.013325388
2.0752909 0.78752214 0.32763225 6372146 -0.17729895 -0.98298943 0.047925532 0.018536972
2.0887196 0.78595698 0.32717949 4530716 -0.14083895 -0.97696155 0.16034494 0.029673068
2.5642524 0.78814167 0.32041582 2493712 -0.98552901 0.16786015 0.023571819 0.025776973
2.6026449 0.78952032 0.32845017 1574151 -0.98703843 -0.14856726 0.060686883 0.040638652
1.7119395 0.79063565 0.32136595 4069387 -0.97665554 -0.20180927 0.073600478 0.063899212
1.7284729 0.79586226 0.32360214 4334093 -0.9102509 -0.41257057 0.035056219 0.056882001
1.7332118 0.79439288 0.32332438 5384983 -0.75065607 -0.65582061 0.080092207 0.13024709
1.758782 0.79218507 0.32714787 5845018 -0.2721363 -0.953224 0.1315522 0.068456717
1.7684586 0.79963982 0.32023415 5843993 -0.11590586 -0.97943527 0.1651437 0.041126546
1.7743012 0.79407549 0.32843146 5187350 -0.044555567 -0.97168469 0.23204237 0.042577274
1.7932545 0.79270846 0.32658228 4924950 -0.058673892 -0.90740305 0.41614562 0.029010305
1.8303158 0.79642403 0.32356244 4924950 -0.0022071451 -0.91787207 0.39687026 0.017206287
1.8482519 0.79129875 0.32192963 4793625 -0.006374009 -0.92170119 0.38784832 0.018029384
1.8792583 0.79465091 0.32055649 5516835 -0.032570444 -0.97006059 0.24066913 0.015266249
1.9482861 0.79221249 0.32947153 5778717 -0.073601805 -0.96071404 0.26760301 0.019082168
2.0157573 0.79400355 0.32890233 5582626 -0.039198168 -0.98570073 0.16388305 0.0052893986
2.0511873 0.79325098 0.32825813 5911332 -0.1295612 -0.98795694 0.084587477 0.011726712
2.1394577 0.79688573 0.32685137 6043955 -0.05470917 -0.9910773 0.12154312 0.02261821
1.7246425 0.80571473 0.32300198 3412744 -0.94053549 -0.33872429 0.025668131 0.061316729
2.5840297 0.80300379 0.32712251 1574406 -0.97556704 -0.1784582 0.12814681 0.042284623
1.7348728 0.81862444 0.32589412 3281930 -0.98002952 -0.16072555 0.11708736 0.024780905
2.5831742 0.81391084 0.32062939 2428173 -0.97935706 0.20212783 0.0020502061 0.044516854
1.6511152 0.82616776 0.32889962 5712403 -0.098789439 -0.9818579 0.16185132 0.011706163
1.6762716 0.82597625 0.32656395 5514764 -0.23780829 -0.96396899 0.11921 0.016557382
1.6934342 0.82143456 0.3247332 5055245 -0.49243921 -0.86379945 -0.10655594 0.072818458
1.712338 0.82636881 0.32204035 3347972 -0.69814175 -0.71538579 -0.028658601 0.063923098
1.7253318 0.82344776 0.32388261 3215621 -0.88219297 -0.47069338 0.013535319 0.069206268
1.7338667 0.8219763 0.32190353 3346693 -0.90127969 -0.42732704 -0.071320072 0.057201535
2.5845735 0.82257497 0.32741299 1640199 -0.98163283 0.12486176 0.14424491 0.048459943
1.5334655 0.83998615 0.32863313 5846042 -0.073158838 -0.9725123 0.22106032 0.0055991313
1.5696789 0.83566701 0.32478029 5714204 -0.025186405 -0.97160846 0.23525013 0.0064349608
1.6167543 0.83713925 0.32166633 5582096 -0.073875256 -0.97230899 0.22171549 0.013204281
1.640607 0.83898199 0.32608408 5385239 -0.073671833 -0.95446873 0.28907081 0.012204338
1.6958889 0.83474135 0.32331026 5253392 -0.31379777 -0.94024998 0.13213985 0.019257568
1.7035855 0.8374157 0.32266986 4530186 -0.56619728 -0.8238076 0.027597154 0.063370496
1.7185535 0.83544219 0.32503137 4464650 -0.84776229 -0.52846241 0.045017548 0.074350789
1.725071 0.8304289 0.32242852 3938314 -0.75787306 -0.64902401 -0.066305228 0.07140965
2.5832305 0.83390927 0.32108545 2560537 -0.97743535 0.16146339 -0.13619743 0.040101424
1.4243127 0.84813863 0.3288843 6437660 -0.094407804 -0.98413604 0.15021153 0.012558832
1.4433599 0.84834659 0.32684666 6438176 -0.17980461 -0.97963226 0.089392103 0.0081225978
1.4554452 0.84414768 0.32532161 6175006 -0.16177656 -0.9720974 0.16986775 0.0072872518
1.469523 0.84092748 0.32363474 5977628 -0.13868931 -0.97645622 0.16522266 0.0096209599
1.4955471 0.84437108 0.32102004 6043680 -0.086274005 -0.97756565 0.19215173 0.0083581274
1.5555599 0.84016293 0.32643345 5715228 -0.055355072 -0.97337109 0.2224513 0.0041442253
1.6022615 0.84161425 0.32169384 5450775 -0.064490519 -0.97300178 0.22160439 0.010726794
1.6759653 0.84322488 0.32411301 5648409 -0.20801739 -0.96308905 0.17084569 0.0137734
2.5851176 0.84214622 0.32770345 1509128 -0.95848227 0.27283272 0.082910508 0.023692045
1.6449022 0.85142756 0.3251825 5713686 -0.062171761 -0.98567772 0.15676123 0.010021389
1.6681749 0.85150343 0.32460669 5713951 -0.17880337 -0.96561122 0.18874425 0.015866024
2.5397987 0.85070533 0.32025018 2955556 -0.95325315 0.027672917 -0.30090302 0.052282948
2.5838804 0.85516602 0.3246125 2560282 -0.95241785 0.051967684 -0.30033225 0.054218173
2.5413775 0.86924857 0.32057664 2889763 -0.97709894 0.053790998 -0.20587432 0.060553443
2.6048367 0.868384 0.32962063 1640716 -0.99305946 0.11593233 0.019813821 0.018147206
2.5836899 0.87301457 0.3228538 2692126 -0.96140003 -0.10116743 -0.25588113 0.043954
2.6053848 0.88810003 0.32991326 1509641 -0.98801249 0.1416508 -0.061370939 0.019382527
2.5839195 0.8925674 0.32373804 2757147 -0.96552283 -0.080999896 -0.24739595 0.038803082
2.5625536 0.91286284 0.32026032 2888989 -0.99888819 0.01039003 0.045983616 0.052290112
2.5841494 0.9121201 0.32462224 2691613 -0.96308589 0.022937225 -0.2682153 0.035219736
2.5461144 0.92487878 0.32155594 3084820 -0.99991995 0.009879183 -0.0079125762 0.05723815
2.5843792 0.93167281 0.32550642 2821399 -0.95572817 0.14322965 -0.25703871 0.037349902
2.5476933 0.94342214 0.3218824 4663068 -0.99872762 0.046850607 0.018658429 0.038957555
2.5682893 0.94329357 0.32464737 4992049 -0.96270466 0.013192439 -0.27023283 0.037491355
2.6015761 0.95938301 0.32736036 4794139 -0.94936627 0.2757045 -0.15063454 0.038749479
2.4134996 -1.4627975 0.3308855 10390413 -0.96357781 0.2274975 -0.1405798 0.1295042
2.4328525 -1.4540355 0.33028671 10391182 -0.92010432 0.39080036 0.026139006 0.11490728
2.4241734 -1.4470965 0.33381471 10918291 -0.94687039 0.06218769 -0.31554595 0.027682111
2.4409304 -1.4453341 0.33014563 10258818 -0.98895216 -0.13239367 0.066675842 0.062914766
2.4113364 -1.4389325 0.33405489 10851469 -0.88790554 0.44167611 -0.12863103 0.02843401
2.4344771 -1.4349533 0.33062264 10456975 -0.98573387 0.15854344 -0.056505173 0.13216025
2.412333 -1.4200796 0.33422124 11049362 -0.90153289 0.40026152 -0.16440552 0.043891735
2.4248595 -1.428378 0.33447593 10984084 -0.95286131 0.024483409 -0.3024168 0.035110336
2.4429283 -1.4258571 0.33040905 10324614 -0.98667485 -0.15765983 -0.040202018 0.067460135
2.433558 -1.413492 0.33309656 10851218 -0.88454121 0.36678857 -0.28818902 0.048756063
2.4255457 -1.4096594 0.33513719 11181209 -0.98040473 0.093504973 -0.17338794 0.036585718
2.444926 -1.4063801 0.33067244 10390405 -0.99148136 -0.12753963 -0.026428211 0.067366198
2.4555011 -1.4065627 0.33036938 10653840 -0.87562418 0.21832095 -0.43083429 0.06256859
2.4262321 -1.3909408 0.33579841 11115670 -0.99163371 0.11369604 -0.061121449 0.023975458
2.4320176 -1.3921231 0.33540219 11180952 -0.76457316 0.59906214 -0.23780775 0.05132756
2.4571373 -1.3873436 0.3307077 10851219 -0.90401524 0.19939759 -0.3781496 0.026195519
2.4269183 -1.3722221 0.33645967 11378331 -0.96881425 0.18897551 -0.16027242 0.032525662
2.4330211 -1.3731332 0.33556974 11377559 -0.87177503 0.24945328 -0.42164126 0.1103115
2.4587739 -1.3681247 0.33104607 11048598 -0.90701622 0.245805 -0.34190875 0.065923594
2.4276044 -1.3535035 0.33712089 11444381 -0.95629323 0.17672563 -0.23296224 0.037922028
2.4163187 -1.3446678 0.33488679 11117726 -0.77299571 0.21033891 -0.59852755 0.089531966
2.4509194 -1.3479493 0.33146265 5650478 -0.94485939 0.28003603 -0.16976649 0.036681514
2.4604101 -1.3489058 0.33138439 10391446 -0.84077251 0.3592827 -0.40499079 0.087455951
2.4282908 -1.3347849 0.33778214 11446955 -0.9292351 0.23404075 -0.28591439 0.048711084
2.4350286 -1.3351535 0.3359049 5122576 -0.74379414 0.25002497 -0.61988544 0.10054595
2.453753 -1.3253653 0.33692545 11905183 -0.86379093 0.36273342 -0.34969959 0.094228223
2.4620464 -1.329687 0.33172271 12624271 -0.84683204 0.53110296 -0.028374206 0.090325966
2.482506 -1.3200637 0.33109722 11641250 -0.88399392 0.45435676 -0.11006671 0.093273714
2.428977 -1.3160663 0.3384434 6504029 -0.91169643 0.33838025 -0.23304175 0.050646804
2.4476821 -1.3065405 0.33913794 12429988 -0.93930274 0.30151957 -0.1636955 0.05554343
2.4548397 -1.3076168 0.33454186 11772576 -0.97385013 0.074974209 -0.21446395 0.042392492
2.4841547 -1.3007005 0.33143803 11575205 -0.97582173 0.20884772 0.064456776 0.069137573
2.4483731 -1.287685 0.33980402 12298410 -0.99231535 0.11700365 -0.040254742 0.030751074
2.455775 -1.2871118 0.33726305 12101286 -0.94391823 0.17593341 -0.27940264 0.026457528
2.4858034 -1.2813375 0.33177891 11772321 -0.9927516 0.033552017 -0.11540619 0.061676472
2.4745281 -1.2767756 0.33828849 12364972 -0.96107525 0.040871017 -0.27324703 0.03083708
2.4407351 -1.2609942 0.33005235 11509399 -0.99176264 -0.017621502 -0.12687194 0.032654054
2.487452 -1.2619742 0.33211979 11772838 -0.95825922 0.091171466 -0.27097431 0.064579204
2.4755464 -1.2575117 0.33845848 12299692 -0.92939967 -0.095045306 -0.35662678 0.034611382
2.4427183 -1.2416612 0.3303138 11378842 -0.99257404 0.11886815 -0.025828941 0.01470593
2.4706566 -1.2452674 0.33052933 11183519 -0.99362224 -0.033583891 -0.10764285 0.060890552
2.4891007 -1.2426111 0.33246067 11970215 -0.96220827 0.058744565 -0.26590312 0.062908687
2.4447012 -1.2223282 0.33057526 11378331 -0.99553722 0.088462837 -0.032863621 0.014485568
2.4588077 -1.2297311 0.33776945 12300462 -0.93771994 -0.19605768 -0.28677982 0.035891756
2.4907494 -1.223248 0.33280155 11970476 -0.98897517 0.05119212 -0.13895136 0.063824452
2.4598186 -1.2106043 0.33793819 12366255 -0.94799906 -0.17348936 -0.26683187 0.044884454
2.4466844 -1.2029952 0.33083671 11641503 -0.99188185 0.11555384 -0.053082544 0.026360426
2.4923978 -1.2038848 0.33314243 12036269 -0.99657035 0.037925266 0.073548347 0.054923844
2.4458628 -1.1834482 0.33417189 12167593 -0.97905105 0.09616112 -0.17947717 0.049720593
2.4722528 -1.1878332 0.33138177 11512744 -0.99631906 0.085715324 0.0011315336 0.067811869
2.4940464 -1.1845218 0.33348331 12299441 -0.98533553 0.035048269 0.16698961 0.030765455
2.4440618 -1.1642444 0.33741313 12826037 -0.96573871 0.18099773 -0.18598013 0.06502559
2.4506505 -1.1643292 0.33135962 12101284 -0.9749229 0.054425079 -0.21578532 0.032231279
2.4690807 -1.164297 0.33021924 12563381 -0.97960013 0.20090534 -0.0045527518 0.058496863
2.472785 -1.1686883 0.3316659 11774889 -0.97440267 -0.017454438 -0.22413139 0.093803644
2.4956951 -1.1651586 0.33382419 12431029 -0.98535758 0.03569011 0.16672364 0.030778732
2.4628513 -1.1532238 0.33844459 12826037 -0.98199201 0.18209328 0.050336834 0.081545934
2.4526334 -1.1449962 0.33162108 12036520 -0.98246729 0.018074283 -0.18555696 0.036742546
2.4688444 -1.1458427 0.33123383 12826037 -0.98330939 0.031199237 -0.1792465 0.067019299
2.4733171 -1.1495436 0.33195004 11906475 -0.94136649 -0.011649881 -0.33718455 0.0865582
2.4973438 -1.1457955 0.33416501 12496822 -0.99820733 0.059648313 -0.0049181879 0.04484129
2.4638624 -1.1340969 0.33861339 12826553 -0.99307698 0.077551268 -0.088227063 0.056622032
2.4738493 -1.1303988 0.3322342 11973038 -0.95012981 -0.15327516 -0.27158812 0.083620578
1.5970416 -1.1266434 0.3322044 4802915 -0.70704895 0.68099028 0.19061475 0.044315018
2.4546165 -1.1256632 0.33188254 12167853 -0.97031742 -0.1403147 -0.1969669 0.024927171
2.4686081 -1.1273882 0.3322483 13023416 -0.95972598 0.11333113 -0.25706437 0.04949085
2.4826734 -1.1226653 0.33964849 13024191 -0.99765986 -0.067289166 -0.012124696 0.031444795
2.4989924 -1.1264323 0.33450589 12497336 -0.99187106 -0.045485489 -0.1188395 0.037303291
1.6058902 -1.1188041 0.33394799 5989242 -0.77109599 0.60591006 0.19566296 0.054878779
1.6232275 -1.1164334 0.33745989 4868967 -0.78598046 0.58063221 0.21236962 0.056805998
1.6245669 -1.1033756 0.3376365 5395311 -0.91551638 0.35506371 0.18910222 0.044840045
2.4566033 -1.1049571 0.33152726 11972014 -0.96289247 -0.15760288 -0.21908784 0.067040466
2.4683719 -1.1089338 0.33326289 13220543 -0.88994795 0.30445918 -0.33955464 0.053007588
2.5006411 -1.1070693 0.33484676 12628922 -0.97023016 -0.23206948 -0.069262326 0.032538682
1.6259062 -1.0903176 0.33781308 5725296 -0.87033999 0.47974423 0.11114758 0.03893939
1.6344283 -1.0964556 0.33188528 6053493 -0.13284142 0.97385502 0.18428147 0.098905548
1.653096 -1.094364 0.33077425 5526120 -0.83477032 0.4832001 0.26396257 0.084571101
2.46701 -1.0931613 0.33661419 13023936 -0.96536261 0.17002709 -0.19790347 0.045748025
1.6272457 -1.0772597 0.33798966 5395050 -0.75551367 0.65494204 0.015812149 0.042003162
1.6641351 -1.0732909 0.33057135 8023672 -0.93547094 0.27360082 0.22368921 0.064828023
2.4668951 -1.0767163 0.33911973 12892607 -0.99378121 0.084453844 -0.07257057 0.038794022
2.4843583 -1.0795712 0.3353467 12694458 -0.99077165 -0.016629199 -0.13451812 0.039859958
1.6370896 -1.0695188 0.33993667 8486537 -0.70217431 0.693335 -0.16198108 0.054537274
1.6554581 -1.0667095 0.33032462 7629426 -0.57458067 0.77023339 -0.27676281 0.0441317
1.665266 -1.0600077 0.33080518 5716542 -0.97689164 0.20128073 0.071894869 0.057106838
2.4605656 -1.0676641 0.33266687 12168625 -0.94826293 0.25605112 -0.18771078 0.041567486
2.4850578 -1.0606699 0.33602667 12694201 -0.99583352 0.083281167 -0.037144817 0.045157813
1.6568185 -1.053447 0.33050397 7693135 -0.6341747 0.73856437 -0.22879072 0.058759615
1.6752299 -1.0504072 0.33409247 8813178 -0.81541771 0.52841693 -0.23636754 0.049071912
2.467906 -1.0575895 0.33928853 12827066 -0.9951781 0.011704202 -0.09738382 0.039054923
1.6652596 -1.0473329 0.33397728 9799564 -0.58061105 0.81292945 0.045128006 0.026612189
2.4581921 -1.0465609 0.33175686 11906991 -0.85705006 0.1884715 -0.47952455 0.037628926
2.4625487 -1.0483313 0.33292833 12168107 -0.94584149 0.29227522 -0.14127685 0.037879452
2.4849222 -1.0421342 0.33661565 13220543 -0.99414533 0.091946058 -0.05675419 0.043913689
2.4687567 -1.0363438 0.3385672 12694712 -0.99597275 0.04901614 -0.075071104 0.052955069
2.4909036 -1.0371954 0.33049566 13090238 -0.9284153 0.22050186 -0.29903847 0.034932852
2.5021772 -1.0304395 0.33693907 13024702 -0.99344355 -0.10682427 -0.040725589 0.038958803
2.4587202 -1.0275532 0.33203897 11907504 -0.83294302 0.24881628 -0.49426341 0.018773718
2.4645317 -1.0289983 0.33318979 11971244 -0.98365557 0.13405602 -0.12021128 0.031431112
2.4882278 -1.0221841 0.33713606 12628922 -0.99921781 0.022249738 -0.032693803 0.049881388
2.4699278 -1.0193359 0.33962613 13221059 -0.94787961 0.24015705 -0.20940123 0.053336963
2.491605 -1.018066 0.33117139 13155777 -0.98896092 0.0073865242 -0.14799269 0.050621748
2.4592485 -1.0085454 0.33232108 12235956 -0.89165008 0.12616909 -0.434789 0.036348756
2.4665148 -1.0096653 0.33345124 12168371 -0.98065263 0.055680536 -0.18767029 0.029376449
2.4844463 -1.0049669 0.3386589 13090497 -0.95336199 -0.22997963 -0.19547473 0.046273928
2.4684978 -0.99033231 0.3337127 12366002 -0.97631645 0.077623047 -0.20194267 0.035667807
2.4718456 -0.99606049 0.33834895 12957373 -0.99032712 -0.0027927607 -0.1387243 0.05849668
2.4923062 -0.99893636 0.33184716 13484744 -0.98079234 -0.16777797 -0.099483788 0.038142864
2.4597769 -0.98953789 0.33260316 12235958 -0.95516038 0.12668623 -0.26761782 0.067057468
2.4603052 -0.97053015 0.33288527 12564923 -0.98134053 0.17946291 -0.069021083 0.055445597
2.4729578 -0.97368747 0.33506548 13023935 -0.98054677 -0.074789509 -0.18147908 0.037128489
2.4754539 -0.95543766 0.33531407 13024449 -0.98431498 0.0086953221 -0.17620605 0.041764688
2.4561059 -0.93636566 0.33942413 13878989 -0.94544214 -0.071842819 -0.31776997 0.066499718
2.4766631 -0.93629944 0.33570218 13155780 -0.99097204 -0.049392905 -0.12463859 0.04359797
2.4571097 -0.91737574 0.33959174 13813709 -0.92377776 -0.02378211 -0.38218996 0.071204998
2.46189 -0.91350704 0.33373159 12632005 -0.9910171 -0.055635694 0.12161335 0.08039178
2.4783444 -0.9197312 0.33969262 13089735 -0.99086851 -0.039053176 -0.12905243 0.029344436
2.4584498 -0.90817082 0.3334049 13352901 -0.98641312 -0.14117154 -0.084022105 0.030943755
2.4588578 -0.89466345 0.33748785 13813708 -0.97661251 -0.041579343 -0.21094844 0.057339024
2.4624183 -0.8944993 0.3340137 12762564 -0.97405666 -0.20601785 -0.093649931 0.056856763
2.4599569 -0.8873561 0.33251902 12825533 -0.99918026 -0.017971756 -0.036274921 0.019790713
2.4616201 -0.87378848 0.33508912 13091271 -0.99390835 0.030614331 -0.10587256 0.052467465
2.461925 -0.8681671 0.33277851 12892094 -0.99476153 0.10221596 0.0011867163 0
2.46223 -0.85485685 0.33556321 13156807 -0.98198545 0.15523131 -0.10773971 0.048608799
2.4638934 -0.8489781 0.33303803 12760762 -0.99479926 0.1018484 0.0011507838 0
2.4818306 -0.84322715 0.33649632 12631747 -0.96159291 0.074902922 -0.26406178 0.086735949
2.4616761 -0.83437425 0.33721459 13682382 -0.99784213 0.060203914 0.026205242 0.034963708
2.4658616 -0.8297891 0.33329752 12957887 -0.99361944 0.094993204 -0.060801711 0.012026258
2.4823627 -0.82408243 0.33678046 12500418 -0.96772379 -0.049180243 -0.24716784 0.086409487
2.4951804 -0.8236509 0.33005151 13751515 -0.9650774 0.18705772 -0.18339877 0.046409719
2.4650986 -0.81305939 0.33571887 13418440 -0.995368 0.095971853 0.0056464458 0.02244458
2.4949408 -0.80493784 0.33108029 13488092 -0.96908575 -0.0025362205 -0.24671111 0.033610504
2.4659722 -0.79584497 0.33592916 13156807 -0.99828106 0.042602785 -0.040250987 0.045578793
2.4655881 -0.78045309 0.33570635 12893896 -0.9501121 0.30998009 -0.034632552 0.055637203
2.4947011 -0.78622478 0.33210906 13552079 -0.99486411 -0.0088179717 -0.10083465 0.03756943
2.4637499 -0.77780747 0.33921283 13880785 -0.97501397 0.19933337 0.098050967 0.052906532
2.4717665 -0.7722221 0.33407605 12826814 -0.99482334 0.10161362 0.0011063041 0
2.483959 -0.76664799 0.33763289 12828356 -0.96604496 0.25612769 -0.033996008 0.058473431
2.4944615 -0.76751179 0.33313778 13681872 -0.99715751 -0.03436105 -0.067054018 0.03846598
2.4644413 -0.75895196 0.33987892 13880531 -0.97131008 0.2145804 0.10252795 0.05536034
2.4737346 -0.7530331 0.33433554 12761021 -0.99476296 0.10220124 0.0012635391 0
2.5023372 -0.75256878 0.33956349 12762563 -0.99389499 0.10970077 -0.011770856 0.049176011
2.4942219 -0.74879867 0.33416656 13551820 -0.99208838 -0.12532432 -0.0073808581 0.02914959
2.475703 -0.7338441 0.33459505 12629694 -0.99476087 0.10222068 0.0013442709 0
2.4939823 -0.73008561 0.33519527 13945808 -0.99894428 -0.032039229 -0.032922432 0.021637972
2.4850233 -0.72835845 0.33820117 12697287 -0.99758852 0.032233085 0.061467052 0.050473247
2.4776714 -0.7146551 0.33485457 12826816 -0.99222207 0.1046957 -0.067337118 0.011652597
2.4937427 -0.71137249 0.33622405 13814992 -0.99978012 -0.020831488 -0.0024210215 0.02595959
2.4855554 -0.70921361 0.33848533 12631492 -0.99961305 -0.024508206 -0.013162045 0.03890007
2.4796395 -0.6954661 0.33511406 12695230 -0.97734398 0.087809667 -0.19258322 0.022761701
2.4860873 -0.69006884 0.33876947 12631492 -0.97275609 0.17566518 -0.15128537 0.038028367
2.4935031 -0.69265944 0.33725283 13682125 -0.99739075 0.072116882 0.0033015907 0.023125241
2.4841137 -0.67360055 0.33721358 12827331 -0.95935076 0.27077198 -0.079552606 0.042823873
2.4932635 -0.67394632 0.33828154 13813709 -0.96893257 0.24356627 -0.04295592 0.033762183
2.4835761 -0.65708804 0.33563307 12695230 -0.98981988 0.071515016 -0.12305378 0.02005933
2.4930241 -0.65523326 0.33931032 13813458 -0.98986167 0.13887796 -0.029779078 0.042198464
2.5112386 -0.64093214 0.33962461 13681872 -0.9938001 -0.060585801 0.093223952 0.036195632
2.4855444 -0.6378991 0.33589259 12892096 -0.99477226 0.10210959 0.0013634143 0
2.4875126 -0.6187101 0.33615208 12695741 -0.99472839 0.10253792 0.0012117143 0
2.489481 -0.5995211 0.3364116 12695487 -0.98530191 0.17082083 -0.00063750008 0.011600539
2.4914491 -0.58033204 0.33667108 12366522 -0.97504503 0.22126602 -0.01812526 0.019509168
2.5121248 -0.56500638 0.33946466 12498108 -0.97332042 0.22609235 -0.039111216 0.018972147
2.4890182 -0.49748904 0.33060017 13485520 -0.98752421 0.0094262566 -0.15718482 0.047687408
2.4865065 -0.48587081 0.3303653 13095389 -0.98668629 0.15887976 0.034748632 0.03908674
2.4715228 -0.47534153 0.33129478 13090248 -0.97302717 0.1175525 -0.19849335 0.033082116
2.4862669 -0.46715775 0.33139408 13226460 -0.98640698 0.113882 -0.11845755 0.047066782
2.4920287 -0.45870239 0.33113524 12761800 -0.95871586 0.12387428 -0.25596714 0.054929592
2.5044315 -0.45148042 0.33165041 12764881 -0.96939188 -0.0085495627 -0.24536984 0.046288282
2.491107 -0.44051144 0.3326129 12957890 -0.92767769 0.28725412 -0.23853548 0.072075292
2.4952598 -0.43895507 0.33066198 12433866 -0.95484352 -0.051860206 -0.29254821 0.070496537
2.4857876 -0.42973158 0.33345157 12961747 -0.98820525 -0.030463872 -0.15007436 0.040310215
2.5100105 -0.42426309 0.33327466 12958402 -0.90000945 0.29371879 -0.32204399 0.063169509
2.4785438 -0.41720909 0.33192936 11973315 -0.9898051 0.082905076 -0.11581241 0.066037446
2.485548 -0.41101852 0.33448035 12960720 -0.98781699 -0.030462658 -0.15260965 0.037508711
2.5107117 -0.40513355 0.33395043 12892866 -0.88815188 0.34754983 -0.30065826 0.053179871
2.4801452 -0.39840004 0.33226046 12170953 -0.96529281 0.25176695 -0.069449067 0.057812456
2.5037074 -0.39493042 0.33475921 13223892 -0.96901065 0.16923496 -0.17993878 0.027531149
2.5000989 -0.38211805 0.33166257 12236485 -0.93008673 0.35725835 -0.085470378 0.057873495
2.5114131 -0.38600403 0.33462617 12629694 -0.92847776 0.21816324 -0.30055588 0.042290218
2.5034661 -0.37608042 0.33579549 12631753 -0.97590381 0.18831909 -0.110217 0.033076007
2.5017121 -0.36317241 0.33199605 12039106 -0.95581889 0.29395387 -0.0011849403 0.071791023
2.5121143 -0.36687452 0.33530194 12695228 -0.9422645 0.033788394 -0.33316055 0.040162165
2.5032248 -0.35723042 0.33683178 13090248 -0.98605168 0.14633338 -0.079301253 0.033651829
2.5128157 -0.347745 0.3359777 12760768 -0.92145127 -0.16050486 -0.35378775 0.02881211
2.5217011 -0.34648049 0.33140519 11841727 -0.9943589 0.09582229 -0.045480013 0.051754389
2.5029836 -0.33838046 0.33786806 12498879 -0.99240351 -0.038293745 0.11691429 0.047528792
2.4952848 -0.32655618 0.33663842 12695488 -0.93694526 -0.087627791 -0.338312 0.0477667
2.5049384 -0.32528105 0.33266315 11841727 -0.98662519 0.1617212 -0.020421386 0.067383938
2.5027421 -0.31953046 0.33890435 12696770 -0.98722857 -0.0044321567 0.15924847 0.050336078
2.495981 -0.30756363 0.33730933 12892609 -0.96241766 0.089673847 -0.25634134 0.075093172
2.5045261 -0.30350792 0.33646864 12301759 -0.98199373 0.18890473 -0.0018446051 0.060715631
2.5149195 -0.29035649 0.33800495 12629437 -0.94765294 0.24111722 -0.20932367 0.053540032
2.5265751 -0.2892336 0.33241299 11841212 -0.93428946 0.32182944 -0.15339163 0.058338758
2.5281999 -0.27015129 0.33274892 11709624 -0.94149339 0.21321854 -0.26101357 0.062533371
2.4973736 -0.26957852 0.33865118 12629437 -0.96555948 0.013697593 -0.25982168 0.075924218
2.5163224 -0.25209746 0.33935648 12563389 -0.94955784 0.070665561 -0.30552644 0.051814262
2.5298245 -0.25106901 0.33308485 11774904 -0.94111454 -0.037745062 -0.33597431 0.056408051
2.5314493 -0.2319867 0.33342078 11972285 -0.90319777 -0.15323146 -0.40094143 0.072876193
2.5146167 -0.21160699 0.33466426 11511734 -0.8627004 -0.23528159 -0.44765028 0.057074629
2.4977612 -0.19150053 0.33590278 11577527 -0.8942616 -0.13101541 -0.42793834 0.063493013
2.4993627 -0.17269148 0.33623388 11445941 -0.93700087 0.030112701 -0.34802684 0.05030378
2.5009639 -0.15388246 0.33656499 11314355 -0.93068814 0.037942301 -0.36384082 0.041346606
2.5025654 -0.13507341 0.33689609 11248562 -0.95286024 -0.083878644 -0.29158497 0.029585546
2.5142777 -0.13077976 0.33015254 11380170 -0.964302 0.082467824 -0.251636 0.04017375
2.4856515 -0.11565009 0.3381227 11445171 -0.95958692 -0.021224268 -0.2806111 0.033426177
2.5323756 -0.11235704 0.33042634 12235481 -0.98651242 0.068835385 -0.1485091 0.030826654
2.5057683 -0.097455308 0.33755836 11378866 -0.92502123 0.23047158 -0.30202425 0.042537853
2.5137916 -0.0928059 0.33224013 12762334 -0.98855871 0.073679179 -0.13161746 0.028148437
2.5073698 -0.078646272 0.33788946 11181740 -0.94962674 0.10947554 -0.29363954 0.063801922
2.5135486 -0.073819004 0.33328393 12434901 -0.99644363 0.034862567 -0.076712154 0.025670566
2.5275214 -0.06004161 0.33733246 11050154 -0.97647715 0.098118387 -0.19200319 0.077583082
2.531641 -0.054985486 0.33358032 11581124 -0.98411673 0.13982396 -0.10937802 0.031148871
2.4920111 -0.040960424 0.33943751 10984872 -0.9936676 -0.015876755 -0.11123234 0.10574643
2.5313962 -0.035861649 0.33463162 11449022 -0.94940698 0.16654232 -0.2662518 0.037708852
2.4936008 -0.022288017 0.33976623 10919079 -0.99559152 0.093654849 0.0051317816 0.10704653
2.5311513 -0.016737789 0.33568299 11449021 -0.92265248 0.1351206 -0.36118546 0.030409826
2.5137756 -0.0034100823 0.33921394 10853802 -0.95216137 0.29599041 0.076016203 0.070987083
2.5309064 0.0023860512 0.33673429 11382969 -0.89935148 0.021621307 -0.43669161 0.037524577
2.515377 0.015398938 0.33954504 10788009 -0.95376694 0.29618233 -0.051035941 0.07284914
2.5306616 0.021509893 0.33778566 11710645 -0.87337273 -0.30667254 -0.37838078 0.052783303
2.5169785 0.034207989 0.33987615 10787239 -0.89916545 0.2744512 -0.34084898 0.063439675
2.5235064 0.035633232 0.33064762 11576234 -0.99938744 0.0024239551 -0.034913197 0.033861332
2.51209 0.040102523 0.33954683 11579059 -0.96109283 -0.22956584 -0.15362354 0.07759165
2.5242078 0.054762732 0.33132336 11313575 -0.99073851 -0.012142447 -0.13523982 0.042201091
2.5371997 0.053632423 0.33933356 10721448 -0.87615913 0.015612968 -0.48176911 0.050007623
2.524909 0.073892243 0.33199912 11379368 -0.98988152 -0.047180258 -0.13382283 0.039066624
2.5388129 0.072578117 0.33966711 10853034 -0.90172809 -0.11157838 -0.41765618 0.062620647
2.5072918 0.09206219 0.33268833 11445159 -0.98671329 0.037001569 -0.15820181 0.022742929
2.5263116 0.11215126 0.33335063 10984097 -0.98909807 0.061566532 -0.13377056 0.023593767
2.5270131 0.13128076 0.3340264 11049890 -0.98288131 0.15385728 -0.10135236 0.022062795
2.5114398 0.14632478 0.33005384 1967885 -0.9956435 0.080250643 -0.047474869 0.017346719
2.5277145 0.15041028 0.33470213 10918558 -0.99136931 0.11214212 -0.067904882 0.022701103
2.5284157 0.16953976 0.3353779 10918558 -0.99371195 0.10606426 -0.035874505 0.023437705
2.5307155 0.16679676 0.33103225 1314079 -0.97210383 0.22828096 -0.053869419 0.017573111
2.5291171 0.18866928 0.33605367 11048861 -0.99439216 0.088009596 0.058639318 0.019223858
2.5298183 0.20779882 0.33672941 11180447 -0.99078089 0.066852823 0.11783038 0.011902445
2.5305197 0.22692831 0.33740517 11114908 -0.99189723 0.043417342 0.11939374 0.013169345
2.5235112 0.23283787 0.33074695 1644335 -0.99432391 -0.03347706 0.10099155 0.019520231
2.5312209 0.24605782 0.33808091 11049374 -0.98405105 0.029682316 0.17539264 0.00041406305
2.5232663 0.25196168 0.33179826 2501692 -0.99322695 0.019707952 0.11450753 0.020285981
2.5319223 0.26518738 0.33875668 10851997 -0.99005806 0.075564951 0.11863811 0.011076011
2.5184658 0.27925405 0.33122692 1050656 -0.96620637 0.2001759 0.16240346 0.031010086
2.5230215 0.27108553 0.33284962 2368307 -0.9956584 0.072829433 0.05796792 0.024260208
2.5326235 0.28431687 0.33943245 10720925 -0.98025149 0.19618587 0.024864035 0.020855367
2.5227766 0.29020935 0.33390093 4275795 -0.99798435 0.0048121251 0.063277707 0.022949144
2.5140014 0.30573747 0.33439416 10263215 -0.95957905 0.25786817 -0.11274788 0.023411445
2.5225317 0.30933318 0.33495229 5985647 -0.99766088 -0.025263695 0.063518159 0.023250213
2.5377917 0.30068466 0.33221379 786971 -0.97850227 0.13915288 0.15221615 0.027985366
2.5388029 0.31981143 0.33238256 918559 -0.97758323 0.17257731 0.12061545 0.029358016
2.5222869 0.32845706 0.3360036 6707575 -0.99860227 0.031303987 0.042586222 0.032276064
2.5325944 0.32749486 0.33630157 9868200 -0.96040571 0.25473884 -0.11282286 0.026168687
2.5398138 0.33893833 0.33255136 983582 -0.97884488 0.20348231 -0.021395132 0.023069359
2.522042 0.34758091 0.33705497 6970747 -0.99323583 0.10465363 0.050300851 0.039772131
2.5331304 0.34677669 0.33658773 9670821 -0.97979462 0.1466486 -0.13600285 0.028876314
2.5408247 0.3580651 0.33272016 1114909 -0.97985971 0.16432628 -0.11345463 0.036449753
2.5336664 0.36605859 0.33687392 9078942 -0.99129593 0.010559063 -0.13122828 0.020047259
2.5400622 0.36957058 0.33739117 7167611 -0.9755677 0.20560583 0.077420726 0.02791116
2.537009 0.38708591 0.33780506 8485010 -0.99293262 0.11510606 0.028901463 0.021274973
2.5601869 0.38018048 0.33371305 983065 -0.96688509 0.1213406 -0.22452112 0.029047823
2.5428464 0.39631888 0.33305776 1245981 -0.96580559 0.11195572 -0.23384923 0.029905062
2.5395691 0.40809211 0.33950886 7759491 -0.99808455 0.058651615 -0.019679517 0.030222943
2.5538194 0.40795881 0.33916831 8684184 -0.99946195 0.030659579 -0.011655916 0.013692095
2.5438573 0.41544577 0.33322656 1377567 -0.97569406 0.075047225 -0.20588577 0.022204097
2.535274 0.42390415 0.33773243 7894667 -0.99653256 0.081952222 -0.014374988 0.025845047
2.5448682 0.43457255 0.33339533 1443360 -0.96734875 0.18122728 -0.17718087 0.022776619
2.53581 0.44318604 0.33801863 7697031 -0.99860901 0.041998897 -0.0318789 0.036313891
2.5642593 0.45723563 0.33439305 1573654 -0.97983629 0.087660968 -0.17954506 0.030203503
2.5652776 0.47649944 0.33456305 2099222 -0.98484659 -0.083742507 -0.15186995 0.032156222
2.5340691 0.48219094 0.33463085 4734548 -0.99759406 0.047426816 -0.050564613 0.041430447
2.5479012 0.4919531 0.3339017 2033941 -0.97815526 -0.18700369 -0.090785645 0.022659326
2.5374177 0.50103158 0.33887714 6906232 -0.9990626 -0.010565674 -0.041979562 0.036617786
2.5517073 0.50520474 0.33005181 2758191 -0.8699224 0.35936987 -0.33776954 0.046807341
2.548912 0.51108003 0.3340705 2165264 -0.99400383 -0.071970642 -0.082320713 0.029960999
2.5379536 0.52031344 0.33916333 6642548 -0.98257953 0.18466166 -0.020919943 0.024486156
2.5870874 0.52877349 0.33006406 2165264 -0.96106285 0.10751489 -0.25455618 0.026558282
2.5499229 0.5302068 0.3342393 2427409 -0.97589391 0.20443332 -0.076407723 0.027748728
2.5509338 0.54933369 0.33440807 2493202 -0.94829071 0.31640893 -0.02510215 0.016004473
2.5890417 0.54782611 0.33032173 2297626 -0.96932858 0.12516078 -0.21151091 0.030730799
2.5575218 0.55717039 0.33001554 6444654 -0.99857616 0.053293817 -0.0023424774 0.024037069
2.5565116 0.5616318 0.33104512 3284270 -0.90181887 -0.23500338 -0.36262393 0.038798373
2.590996 0.56687862 0.3305794 2166040 -0.98238599 0.14489901 -0.11799196 0.028000839
2.5582283 0.57643682 0.33069614 6642033 -0.98555845 0.16179673 0.049964342 0.03025558
2.5703683 0.57281834 0.33541304 2427922 -0.97443652 0.21269698 -0.072343141 0.031310298
2.5581131 0.58044094 0.33137622 3284268 -0.93425727 -0.19020626 -0.30163723 0.041061301
2.5929503 0.58593124 0.33083704 2428951 -0.9965784 0.035417464 -0.074680112 0.041083995
2.5593243 0.5974766 0.33154207 4929871 -0.98805231 0.072086416 -0.1362213 0.04178375
2.5713866 0.5920822 0.33558303 2494231 -0.99609309 -0.025422106 -0.084571503 0.039524503
2.5518379 0.60643917 0.33056092 2558993 -0.96980721 0.089538582 -0.22684099 0.038990144
2.5949047 0.60498387 0.33109471 2297363 -0.99257678 0.022800358 -0.11946351 0.044134196
2.5613158 0.61805904 0.33203849 3481138 -0.88346076 -0.30567321 -0.35505074 0.059214432
2.5757499 0.61561906 0.3338958 4337728 -0.99467349 0.046211418 -0.092136368 0.042013638
2.5532835 0.62584275 0.33335549 2428439 -0.9724015 0.038910173 -0.23004639 0.031570889
2.5616322 0.63555217 0.33255374 4864077 -0.96830583 -0.039102487 -0.2466878 0.055885851
2.5276642 0.64596826 0.33450595 3481651 -0.9585765 -0.056932323 -0.2790876 0.057104278
2.5536647 0.64510882 0.33397329 2559768 -0.95789587 0.15263596 -0.24318253 0.032654956
2.5610535 0.65350276 0.33341852 6180967 -0.98549235 -0.087526284 -0.14540984 0.051641908
2.5471549 0.66935629 0.33395782 3285551 -0.90935171 -0.107301 -0.40195262 0.046416961
2.5569994 0.66409475 0.33542085 2756633 -0.95923448 0.21466739 -0.1838129 0.037547167
2.5703108 0.66985548 0.33298513 2428690 -0.92516875 0.19015998 -0.32848427 0.03170687
2.6007674 0.66214162 0.33186769 2691359 -0.90954888 -0.047038447 -0.41292652 0.094128229
2.5812299 0.67812532 0.33409569 6378598 -0.99586052 -0.078384779 -0.046019364 0.050057862
2.5487447 0.68802875 0.33428654 3153965 -0.94938964 -0.031525046 -0.31251502 0.043060154
2.5732689 0.68890321 0.33524644 2494741 -0.95418006 0.21367033 -0.20948847 0.044369288
2.6027217 0.68119413 0.33212537 2559772 -0.87037992 -0.13550662 -0.47336745 0.095762774
2.5819416 0.69753641 0.33478138 6312547 -0.9979139 -0.014902716 -0.062815845 0.049925767
2.5324008 0.70159841 0.33548525 3614514 -0.95542407 -0.15175752 -0.25324813 0.04263287
2.5698102 0.70895505 0.3351346 2427668 -0.98968607 0.11573531 -0.084420286 0.076534636
2.5774956 0.70766497 0.33660305 2626332 -0.97707438 0.20791796 -0.045779932 0.031343915
2.5631726 0.71130216 0.33546031 6115166 -0.99743634 -0.03471946 -0.062572353 0.047768995
2.5339797 0.72014183 0.3358117 3351344 -0.9846341 -0.0096516777 -0.17436361 0.056814391
2.5785136 0.72692871 0.33677304 2494492 -0.99689168 0.078663766 0.0043654074 0.024250714
2.5355585 0.73868519 0.33613816 3482417 -0.96094757 0.21742693 -0.17118821 0.049568813
2.5638788 0.73056865 0.3361409 5852507 -0.99828106 0.022527333 -0.054106101 0.044795763
2.5893416 0.73343641 0.3329832 2493461 -0.96902043 0.21476372 -0.12196688 0.075299352
2.5669475 0.74894494 0.33705282 4140600 -0.98540729 0.035620347 -0.16644387 0.048886716
2.5795319 0.74619251 0.33694303 2691871 -0.99756563 0.069488823 0.005841732 0.023281556
2.610539 0.75740463 0.33315599 2625301 -0.99959743 0.020974455 0.019106209 0.06768363
2.0764811 0.76841909 0.33221641 5190440 -0.086410992 -0.98563367 0.14511845 0.020163018
2.5551038 0.7627185 0.33560142 3219504 -0.97633594 0.19628876 -0.090768099 0.076255098
2.5671754 0.7683531 0.3379305 3944248 -0.98718351 0.057844516 -0.14873737 0.035356645
2.58055 0.76545632 0.33711305 2757411 -0.99797952 0.063202016 0.0065164273 0.024566971
1.9683383 0.77843601 0.33670288 5319454 -0.077473916 -0.90872329 0.41014603 0.01454251
2.0348763 0.77900892 0.33755678 6372657 0.012085622 -0.9875865 0.15661079 0.015858438
2.593791 0.77056628 0.33102098 2560024 -0.98911834 -0.13535501 -0.057653751 0.089311041
1.7150263 0.78996688 0.3342492 4791568 -0.92268413 -0.37913489 -0.070076421 0.073213205
1.7242136 0.78091198 0.33298114 5778451 -0.89610207 -0.41610876 -0.15444921 0.10429677
1.7360409 0.78645021 0.33753848 5648930 -0.75160545 -0.60626358 -0.25987238 0.12517676
1.8561287 0.78807366 0.33865523 5648924 -0.081779912 -0.93498212 0.3451384 0.0057342784
1.8635164 0.78561425 0.33197877 5253915 0.052900746 -0.96388787 0.26100129 0.0083293617
1.880643 0.78986818 0.33276638 4991253 -0.14622451 -0.8933751 0.42485222 0.0060039624
1.9019792 0.78864253 0.33563519 5318936 -0.035403579 -0.95796067 0.28470686 0.013344594
1.9102333 0.78901333 0.33047798 4990743 -0.11596531 -0.89907783 0.42215073 0.0068100402
1.9592795 0.78815144 0.3350921 5123354 -0.046624318 -0.93123907 0.36141387 0.019846302
1.9609741 0.787269 0.33900088 5582880 -0.14110452 -0.93440735 0.32706645 0.011349086
1.993219 0.78953534 0.33982596 4992029 -0.044963747 -0.95088995 0.30624607 0.0079465145
2.0092788 0.78574032 0.33728361 5056544 -0.0024974197 -0.94274789 0.33349708 0.011349933
2.0105257 0.78491986 0.33957955 5384986 -0.029161192 -0.9730463 0.22875866 0.014438652
