# .PCD v0.7 - Point Cloud Data file format
VERSION 0.7
FIELDS x y z rgb normal_x normal_y normal_z curvature
SIZE 4 4 4 4 4 4 4 4
TYPE F F F U F F F F
COUNT 1 1 1 1 1 1 1 1
WIDTH 523
HEIGHT 1
VIEWPOINT 0 0 0 1 0 0 0
POINTS 523
DATA ascii
1.3944349 -0.73323244 0.079127312 14736351 -0.11270103 -0.0067778751 0.99360585 0.0017320443
1.410768 -0.73921138 0.07642284 14670558 -0.12641019 -0.011460625 0.99191189 0.0033528691
1.3261207 -0.72397727 0.071418658 14604765 -0.10272186 -0.012707939 0.99462897 0.0015134036
1.3314397 -0.72384584 0.070537686 14670301 -0.11704923 -0.00083912164 0.9931258 0.0011575375
1.3428726 -0.72836047 0.079580933 14078164 -0.079338372 -0.020082626 0.99664551 0.0035359813
1.3551314 -0.72332335 0.078417674 13881296 -0.069346152 -0.016682705 0.99745315 0.0027497734
1.371779 -0.72380358 0.074905068 14539226 -0.124105 -0.044819143 0.99125642 0.0019280614
1.2921978 -0.71343678 0.075136125 13946578 -0.11012564 -0.032688227 0.99338007 0.0023891556
1.3140856 -0.71377915 0.072557151 14012371 -0.11700037 -0.033850253 0.99255478 0.0025103183
1.3285879 -0.71390516 0.071801871 14538715 -0.12438822 -0.0211858 0.99200743 0.0022099577
1.3316691 -0.71389508 0.071314722 14604508 -0.11098709 -0.0021288809 0.99381959 0.0014099367
1.3599476 -0.71695769 0.076455355 14408156 -0.11730478 0.010015027 0.99304551 0.00083988078
1.3632724 -0.71626019 0.076867789 14209750 -0.090727873 -0.01074119 0.99581784 0.0021461104
1.3762149 -0.71259499 0.075753435 14210004 -0.11286858 -0.055546913 0.99205607 0.0026586731
1.4063005 -0.71338981 0.079665095 14604765 -0.13339476 0.016200827 0.99093062 0.0041785184
1.308921 -0.70027006 0.073651373 13946576 -0.10860908 -0.029748544 0.99363935 0.0026522148
1.3295287 -0.70291579 0.072282284 14472920 -0.13586539 -0.026987584 0.99035972 0.0019043003
1.3381892 -0.7056812 0.070882559 14473180 -0.11304297 -0.0058095702 0.99357313 0.001274996
1.3661305 -0.70727873 0.076433569 14538972 -0.10553233 -0.0066036978 0.994394 0.0015315462
1.3776878 -0.70020938 0.074772179 14604508 -0.083227903 0.00061558187 0.99653035 0.0019716879
1.3919735 -0.70711762 0.074959785 13749197 -0.088478923 -0.030443009 0.9956128 0.0032681103
1.4194156 -0.70761544 0.077678293 14473179 -0.15253747 -0.020775476 0.98807931 0.0042604422
1.3380504 -0.69467419 0.071822681 14407385 -0.11725145 -0.014958763 0.9929896 0.0016071541
1.3680183 -0.69843334 0.077048987 14538713 -0.12020794 -0.05017589 0.99147993 0.0041583716
1.3734317 -0.69997233 0.075981587 14538972 -0.1327375 -0.027747605 0.99076271 0.0010755468
1.3823924 -0.69141793 0.075444728 14143957 -0.10588022 -0.021048384 0.99415606 0.0024202049
1.4200622 -0.69599968 0.078626454 14407386 -0.13320655 -0.0017284155 0.99108684 0.0047109057
1.304718 -0.68732733 0.074612319 13880785 -0.10654477 -0.0027476959 0.99430418 0.0030184756
1.3159952 -0.68194133 0.073484764 13814990 -0.12408312 0.001497183 0.99227077 0.0022944936
1.3399894 -0.68467766 0.073367 14210007 -0.12199012 -0.014590056 0.99242407 0.0010511762
1.3632812 -0.68446946 0.078694195 14472920 -0.12970743 -0.004496675 0.99154216 0.0035369329
1.3839111 -0.68054819 0.07589066 14275800 -0.11565748 -0.016749851 0.99314797 0.0026153545
1.3166318 -0.67132866 0.073793977 13617611 -0.11735441 -0.0077086166 0.99306023 0.0026218412
1.3257184 -0.67820024 0.074442923 14209748 -0.13238174 -0.026772385 0.99083722 0.0026154909
1.3338857 -0.67989975 0.074124843 14341336 -0.13042127 -0.016330406 0.99132419 0.0013413245
1.3406113 -0.67260826 0.074095398 14143956 -0.1134147 -0.017362956 0.99339604 0.0012005159
1.369948 -0.67589337 0.078034401 14209748 -0.12959863 -0.0042261742 0.99155754 0.0035331876
1.3758622 -0.6767118 0.077810705 13551818 -0.095785335 -0.024477109 0.99510103 0.003527083
1.3929967 -0.6722343 0.07430461 14078421 -0.11173307 -0.028239356 0.99333698 0.0036627064
1.3143408 -0.66170865 0.070569515 14143957 -0.099942803 -0.018337026 0.99482429 0.00078237208
1.3356717 -0.66577601 0.073366001 14012369 -0.12018272 -0.0059553506 0.9927339 0.0021497686
1.3471482 -0.66416752 0.073685259 13946578 -0.11785441 -0.008159006 0.99299741 0.0017907246
1.3746084 -0.66549128 0.078675933 13880783 -0.12200046 -0.0067893765 0.9925068 0.002789326
1.3909235 -0.66187793 0.075198054 13946574 -0.12691024 0.028657168 0.9915002 0.0040807333
1.3223751 -0.65310466 0.071927696 13814991 -0.10361998 -0.00016751421 0.99461693 0.0017233755
1.3399367 -0.65056944 0.073490769 13880781 -0.11199029 -0.0067412406 0.99368644 0.0023280689
1.3472011 -0.65204251 0.073951632 13946578 -0.099721834 -0.005533882 0.995 0.001915792
1.3544413 -0.65667832 0.074048072 13881296 -0.12209135 0.028271765 0.99211621 0.0017334467
1.3855704 -0.65787941 0.078092083 14012369 -0.11201739 -0.0064392262 0.99368536 0.0027207471
1.3231889 -0.64233506 0.07269603 13749197 -0.10083103 0.0038833334 0.99489599 0.0016379695
1.3465891 -0.64208943 0.072781444 13814988 -0.10123955 -0.0034938976 0.99485594 0.0024631957
1.3545055 -0.644521 0.074363679 13946061 -0.11287662 0.022992816 0.99334294 0.0017369029
1.3785603 -0.64459538 0.078367978 13946574 -0.13126771 0.03675751 0.99066532 0.0038694835
1.3942678 -0.6493969 0.076168716 13946576 -0.12038358 -0.025950029 0.99238825 0.0033707991
1.2952721 -0.63581502 0.071579635 13814990 -0.10352941 -0.034976438 0.99401122 0.0019730616
1.3158934 -0.63828146 0.070571423 14077392 -0.080105849 0.0013970212 0.9967854 0.0020265081
1.3230069 -0.6316756 0.072673589 13946576 -0.066478491 0.011456795 0.99772209 0.001212499
1.3475378 -0.6310091 0.07326588 13749195 -0.092653349 -0.0056619793 0.99568236 0.00092613557
1.3541799 -0.6323477 0.074335635 13814988 -0.10595257 0.00071579969 0.99437094 0.0017018309
1.3631477 -0.63730466 0.074788034 13946576 -0.13177051 0.039149832 0.99050683 0.0017679958
1.3795291 -0.63327992 0.078862697 13946574 -0.13110082 0.02773273 0.9909811 0.0038576899
1.3949033 -0.6379782 0.077100784 13814990 -0.11822141 -0.019961419 0.99278665 0.0032593652
1.2994951 -0.62106222 0.07166189 13749197 -0.088727452 0.0053186635 0.99604172 0.0011306754
1.3133577 -0.62630099 0.075806499 13486025 -0.13114852 0.0062549114 0.99134302 0.001931431
1.3354299 -0.62565184 0.070792049 13618124 -0.063471086 0.0095814252 0.99793774 0.0012157256
1.354799 -0.6212247 0.075243562 13814990 -0.10536474 -0.016294792 0.99430013 0.0018814892
1.3698987 -0.62853432 0.074539334 14077394 -0.15756951 0.023578728 0.98722643 0.0016844015
1.3804979 -0.62196445 0.079357386 13880781 -0.12314039 -0.0091131628 0.99234742 0.0028186054
1.3973298 -0.62811536 0.078423284 13683148 -0.11379519 -0.0040423106 0.993496 0.0039625796
1.4075326 -0.62034309 0.079582244 13814222 -0.12532267 -0.027097277 0.99174601 0.0024863163
1.2907215 -0.61784208 0.070471972 13683404 -0.095679492 -0.039816566 0.99461555 0.001945058
1.3004127 -0.61034596 0.072130412 13749197 -0.085923575 0.0027066583 0.99629807 0.0012056893
1.3139915 -0.61573398 0.076114386 13420232 -0.11800475 -0.023283556 0.99274009 0.0022881948
1.3291795 -0.61055231 0.070298672 13682636 -0.10589623 -0.025915653 0.99403942 0.0019699058
1.3453171 -0.61849624 0.072114989 13683404 -0.079207145 -0.0067842933 0.99683511 0.0013508967
1.3554181 -0.6101017 0.07615149 13618124 -0.10796134 -0.021346398 0.99392593 0.0017652907
1.3766578 -0.61967355 0.074300706 13814990 -0.17282566 -0.0045416132 0.98494196 0.0028617559
1.3915124 -0.6151374 0.078294665 13288646 -0.12812005 0.035398163 0.99112678 0.0064060511
1.4012513 -0.61801779 0.076826349 13749198 -0.12251709 0.00050884159 0.99246627 0.0026969137
1.2973908 -0.60960978 0.070076317 13683917 -0.080195904 -0.034491323 0.9961822 0.0025990545
1.3070395 -0.6020909 0.071365923 13880013 -0.097460493 0.0087503046 0.99520093 0.0012070022
1.3204511 -0.60765296 0.075649202 13288646 -0.11533927 -0.022221085 0.99307764 0.0022690471
1.3462918 -0.60744774 0.072977886 13749196 -0.074528947 -0.013892494 0.99712211 0.0014683197
1.3617904 -0.6013025 0.075646192 13617611 -0.11277167 -0.038219195 0.99288565 0.0015153083
1.3719343 -0.60612398 0.077064544 13749199 -0.17263511 -0.013642475 0.98489136 0.0026937192
1.3958129 -0.60476971 0.077694774 13749197 -0.14472201 -0.0028605685 0.98946822 0.002810881
1.4025767 -0.60600448 0.078531653 13617611 -0.10068432 -0.0063490053 0.9948982 0.0020723469
1.2983627 -0.5989098 0.071282059 13618124 -0.084068246 -0.035723988 0.99581945 0.002311849
1.3079609 -0.59132904 0.071836382 13749195 -0.097068816 -0.0012250952 0.99527693 0.00092390564
1.3210877 -0.5970403 0.075958401 13354439 -0.11641158 -0.02132869 0.99297208 0.0022201415
1.3361398 -0.59098971 0.070627391 13617611 -0.11433856 -0.036901955 0.99275631 0.0019867732
1.349879 -0.59732342 0.071423918 13617611 -0.10334319 -0.037406571 0.99394214 0.003562687
1.3503836 -0.59776801 0.074719131 13749195 -0.0956655 -0.011774721 0.99534392 0.00084741373
1.362412 -0.59013391 0.076557845 13551818 -0.1031378 -0.039194819 0.99389458 0.0016349936
1.3729521 -0.59491885 0.078327209 13683404 -0.17724049 -0.054713883 0.98264551 0.0015373764
1.3870101 -0.59052759 0.079666704 13222853 -0.12287428 0.020406131 0.99221247 0.0068136859
1.3967907 -0.59334815 0.078194112 13617611 -0.14457268 0.0011463464 0.98949355 0.0028230229
1.4032147 -0.5945403 0.079467416 13617611 -0.10809426 -0.02656994 0.99378556 0.00084591989
1.2673014 -0.584939 0.072412759 13485255 -0.087081581 -0.022364326 0.99595016 0.0023392348
1.2993346 -0.58820987 0.072487742 13683404 -0.10988611 -0.010769904 0.99388587 0.0021757896
1.3145993 -0.58293766 0.071077824 13749195 -0.10537106 0.009877082 0.99438393 0.0011476614
1.3456053 -0.58436036 0.076385379 13880013 -0.089967832 -0.0053538606 0.99593037 0.00076640944
1.3508838 -0.58626145 0.07267043 13683404 -0.13401756 -0.067954324 0.98864627 0.0022964187
1.3797237 -0.58592236 0.0781039 13683404 -0.15738848 -0.041068561 0.98668242 0.0022779743
1.3977686 -0.58192652 0.078693449 13617611 -0.13938382 -0.0096404599 0.99019152 0.0027360891
1.4061785 -0.58657575 0.077707648 13354437 -0.14431074 -0.014021192 0.98943311 0.007170287
1.4105866 -0.58563274 0.078819007 13551818 -0.1146835 -0.030250827 0.99294138 0.00093452318
1.2727681 -0.57676935 0.072028905 13353156 -0.11094384 -0.013965357 0.99372858 0.0017912587
1.2933825 -0.57376498 0.070466995 13551818 -0.080234602 -0.017387815 0.99662435 0.00099974987
1.3003066 -0.57750994 0.073693484 13683402 -0.15151301 0.0098072588 0.98840666 0.0015510428
1.3247204 -0.57630968 0.073065504 13617096 -0.08790803 0.0035597743 0.99612218 0.0016275073
1.3310064 -0.57772923 0.072977901 13617611 -0.11895208 -0.052762933 0.99149716 0.0018447737
1.3520849 -0.57540345 0.074802428 13748684 -0.11349275 -0.035396572 0.99290812 0.0016030385
1.3630337 -0.57896543 0.077469498 13748427 -0.094884902 -0.035463072 0.99485636 0.0011440978
1.3703761 -0.57034868 0.076745331 13683404 -0.093118101 -0.038456723 0.99491215 0.0009831296
1.3846176 -0.57028234 0.079144746 13617354 -0.14936726 -0.010836824 0.98872238 0.0024794748
1.4119632 -0.57582688 0.078537539 13420231 -0.13862595 -0.020955225 0.99012309 0.0038104146
1.2782391 -0.56852365 0.071647286 13353667 -0.11184138 -0.037087578 0.99303377 0.0015076549
1.3069965 -0.56905144 0.07332325 13749197 -0.084490098 -0.036774155 0.99574554 0.0020388295
1.3150723 -0.56091273 0.072493061 13814477 -0.087246016 -0.0091899438 0.99614447 0.0017082365
1.3326569 -0.56810689 0.07467474 13617353 -0.099853426 -0.017299457 0.99485177 0.00157104
1.3530614 -0.56433237 0.075667888 13683403 -0.097081617 -0.031701144 0.99477142 0.0010651255
1.4007052 -0.5615437 0.079201147 13288646 -0.15780137 -0.030304037 0.98700577 0.0049316105
1.270265 -0.55373228 0.070560455 13748425 -0.10980667 0.0099056736 0.99390364 0.0016955897
1.3173751 -0.55051559 0.072495282 13748425 -0.093262076 -0.0061504059 0.99562263 0.0022748818
1.3249373 -0.55435538 0.074521184 13486024 -0.08422403 -0.01550331 0.99632627 0.0011395038
1.3354051 -0.55144542 0.074489295 13617611 -0.13196979 -0.021465667 0.99102128 0.0016217196
1.3569076 -0.55435663 0.075945437 13683404 -0.10237337 -0.039933819 0.99394417 0.0012989641
1.3741958 -0.55456448 0.077421978 13617611 -0.084221192 -0.034303732 0.99585646 0.00060901215
1.3997242 -0.55908322 0.079692125 13617611 -0.14041698 -0.023944179 0.9898029 0.001931944
1.2794721 -0.54796737 0.072246194 13222851 -0.11458742 0.0020767674 0.99341106 0.0010367943
1.3066417 -0.54611832 0.0700984 13420232 -0.098238952 -0.00082752114 0.99516255 0.0017353129
1.3213851 -0.54102719 0.073834568 13551816 -0.093212456 -0.025648601 0.99531585 0.001193605
1.3301129 -0.54618955 0.076739341 13354437 -0.085634626 0.0010923967 0.99632609 0.0010565261
1.3540306 -0.54292548 0.075889245 13354438 -0.086016506 -0.031341579 0.99580061 0.0014914018
1.3608696 -0.54451156 0.075967342 13617613 -0.10856742 -0.025649929 0.99375814 0.0013217139
1.3972747 -0.54565191 0.079755515 13551820 -0.13182256 -0.0089421645 0.99123299 0.0020387671
1.2833164 -0.53365558 0.072290063 13157060 -0.10436872 0.012281824 0.99446291 0.00099015725
1.3072405 -0.53535926 0.070976615 13420232 -0.096297592 -0.011970833 0.99528062 0.0019719114
1.3183004 -0.53970832 0.072967768 13682634 -0.10934138 -0.026769318 0.9936437 0.0015520103
1.3320706 -0.53357589 0.073776141 13485767 -0.12575616 -0.027151184 0.99168956 0.0014498706
1.361742 -0.53317964 0.076924369 13420232 -0.091768086 -0.035323385 0.99515373 0.001218231
1.3722498 -0.53668404 0.079493284 13551818 -0.084233038 -0.022872584 0.99618357 0.00045906351
1.4040805 -0.53627837 0.079574704 13486025 -0.12305278 0.0032221749 0.99239492 0.002084407
1.2890302 -0.52904075 0.071683705 13091780 -0.15114141 -0.037196234 0.9878121 0.0012912743
1.3167888 -0.52521574 0.073407784 13354439 -0.10955382 -0.028591691 0.99356955 0.0014748999
1.3438392 -0.52793944 0.075267792 13288389 -0.11337835 -0.006645618 0.99352968 0.0014429012
1.3627229 -0.5220632 0.07779336 13354439 -0.085607432 -0.034935374 0.99571627 0.0012270514
1.3786454 -0.52746773 0.07902199 13420745 -0.080410048 -0.015503258 0.99664134 0.00074345787
1.2764534 -0.51532865 0.073819011 13157058 -0.13388722 -0.010274215 0.99094331 0.0023532852
1.2871732 -0.51712692 0.071475312 13353925 -0.13733025 -0.016971776 0.99037993 0.0023029554
1.2926531 -0.51074076 0.071962684 13156288 -0.096318386 -0.031442828 0.99485385 0.001202142
1.3201509 -0.51809365 0.07391274 13551046 -0.11792907 -0.029256832 0.99259096 0.0016830979
1.3300806 -0.51049024 0.075952351 13157060 -0.093437053 -0.0092424834 0.99558234 0.0016736551
1.3415885 -0.51605201 0.076590255 13222340 -0.11814477 -0.0044024359 0.99298662 0.0014176096
1.3637272 -0.51113403 0.077426583 13222853 -0.10869374 -0.043034222 0.99314338 0.0012332629
1.3792725 -0.51620066 0.07994169 13354441 -0.075671814 0.0039900397 0.99712479 0.0009768653
1.2949774 -0.5051049 0.072373271 13222082 -0.12076721 -0.022854568 0.99241775 0.0013985254
1.3033749 -0.50113994 0.072094828 13157060 -0.14737956 0.0057367305 0.98906332 0.0019610946
1.3153318 -0.50523454 0.075600356 13353667 -0.1383089 -0.020204434 0.99018306 0.0020260399
1.3205352 -0.50707573 0.070660025 13353669 -0.090796441 -0.010642596 0.99581265 0.0020425066
1.3450975 -0.50616562 0.076481268 13222083 -0.12385632 -0.014705548 0.9921912 0.0018493007
1.3771831 -0.50373781 0.077915758 13157060 -0.069878221 -0.029494524 0.99711943 0.00087446236
1.3856755 -0.50684798 0.079481542 13157062 -0.078398898 -0.0066477805 0.99689996 0.0012022055
1.2787193 -0.49245432 0.070506245 13287876 -0.10938664 -0.010573126 0.99394304 0.0020144603
1.2987713 -0.4917075 0.071895361 13024702 -0.079712167 -0.01662519 0.99667925 0.0013765633
1.3043469 -0.49044004 0.073300511 13222853 -0.12945282 0.021147259 0.99136007 0.0013593896
1.3153874 -0.49427435 0.073017597 13353669 -0.081790306 -0.010049225 0.9965989 0.001906313
1.3277497 -0.49848533 0.073644549 13485253 -0.12323117 -0.019000538 0.99219608 0.0018062923
1.3346292 -0.49708062 0.077419192 13091267 -0.10410353 -0.026704326 0.99420792 0.0018461507
1.3474082 -0.49402115 0.077274501 13287876 -0.12453718 -0.0085458914 0.9921782 0.0020793125
1.3589214 -0.49804491 0.079078913 13091267 -0.10888896 -0.010445402 0.99399906 0.0021171614
1.3782009 -0.4925327 0.079178363 13287876 -0.082139909 -0.022964343 0.99635625 0.0015071926
1.2793059 -0.48191518 0.071366519 13090497 -0.10317506 0.0020283684 0.99466115 0.0022758043
1.3110538 -0.48161337 0.072928637 13222853 -0.13277097 0.0074649085 0.99111867 0.0019936431
1.3268011 -0.48425668 0.073130488 13222082 -0.10924074 -0.017597418 0.99385959 0.002189883
1.3320574 -0.48872843 0.078404546 13157060 -0.093556285 -0.008183375 0.99558043 0.0020591158
1.3445555 -0.48151597 0.07657066 13287878 -0.099592835 -0.021047525 0.99480569 0.0019509671
1.3566586 -0.4871386 0.077118374 13090753 -0.11362634 -0.012475924 0.99344522 0.001635549
1.2876381 -0.47564042 0.072126403 13090496 -0.10050868 0.003705828 0.99492931 0.0018071041
1.2937088 -0.47561318 0.070658565 13287874 -0.10649167 -0.019547522 0.99412149 0.001995665
1.3177691 -0.47269619 0.072567075 13156292 -0.14064096 -0.015025788 0.98994666 0.0020777483
1.329608 -0.4767797 0.074593514 13287874 -0.1189626 -0.0091593713 0.9928565 0.001384872
1.3455521 -0.47054461 0.07780692 13025474 -0.090974785 -0.03810576 0.99512392 0.0023064443
1.3511955 -0.47694543 0.076771677 12958911 -0.12332746 -0.022473685 0.99211156 0.001431709
1.3601766 -0.4755953 0.076242328 13156290 -0.11390654 0.006554157 0.99346989 0.0021873713
1.4010595 -0.47705835 0.07905817 13156290 -0.088074766 -0.048301235 0.99494213 0.0015596281
1.2795244 -0.46412808 0.075310767 12958911 -0.10659435 -0.0066215005 0.99428058 0.003469618
1.287545 -0.46290299 0.071977109 13090496 -0.098629169 -0.012240016 0.99504894 0.0015946218
1.3130058 -0.46012297 0.075350255 13025472 -0.14349693 -0.02694951 0.9892838 0.0020615689
1.3287098 -0.46549043 0.072741866 13156290 -0.10424823 0.0033359006 0.9945457 0.0024231151
1.3357623 -0.46436012 0.076542228 13090496 -0.099022992 -0.0032384512 0.99507987 0.0020585083
1.3492503 -0.4609251 0.079975992 13156290 -0.13576742 0.0063759238 0.99072027 0.0015447467
1.3675374 -0.46663064 0.079372227 13024704 -0.095167898 -0.014297509 0.99535859 0.0013342213
1.2861601 -0.45365024 0.073190697 13024961 -0.11858128 -0.014471713 0.99283892 0.0028702412
1.2925622 -0.45391887 0.070937395 13091267 -0.087413788 0.001591824 0.99617088 0.0022850004
1.3042015 -0.45412999 0.071319617 13221825 -0.099890307 -0.018670097 0.99482328 0.0011424085
1.3197293 -0.45111537 0.074998826 13156290 -0.15492585 -0.027378239 0.98754674 0.0025076861
1.3293164 -0.45459488 0.073631227 13222083 -0.10467642 -0.0015700386 0.99450511 0.0023059498
1.3372303 -0.45689827 0.074337304 13222081 -0.1023872 -0.0073896861 0.99471718 0.0014989275
1.3466226 -0.45356873 0.078153402 13024704 -0.1256323 -0.013446759 0.99198574 0.0020170284
1.3533126 -0.45030034 0.078764886 13156290 -0.087356754 -0.03227086 0.99565428 0.0019338174
1.3614148 -0.45334929 0.078058183 13156290 -0.12180336 0.00015359372 0.99255425 0.0024963832
1.3809998 -0.45936412 0.077349782 13156290 -0.094558351 -0.01886843 0.99534053 0.0019106679
1.2947321 -0.44327909 0.071670651 13156290 -0.11562408 -0.019407457 0.99310338 0.0016698043
1.3340411 -0.44482222 0.07454209 13222082 -0.11516146 -0.019421808 0.99315697 0.0014724832
1.3620338 -0.44222626 0.078966111 13090497 -0.12050208 -0.0027926192 0.99270916 0.0023215588
1.3819607 -0.44813973 0.077840507 13222083 -0.098879829 -0.032169767 0.99457926 0.001841455
1.4083856 -0.44350189 0.079156011 13024704 -0.082090288 0.0053179786 0.99661076 0.0021564208
1.2956673 -0.43268073 0.072499841 13090496 -0.12483517 -0.010534192 0.99212158 0.0014686612
1.3018903 -0.43970868 0.073410377 13090497 -0.097337425 -0.022286965 0.99500191 0.0019615148
1.3149579 -0.43863264 0.077771872 13090497 -0.15871161 -0.0094453245 0.98727977 0.0024184829
1.3333247 -0.43336838 0.076491416 13287874 -0.11496379 -0.009412826 0.99332511 0.00078448944
1.344987 -0.4341228 0.075645 12958911 -0.11686494 -0.019313071 0.99296004 0.002266604
1.3684331 -0.43274036 0.078472316 13090497 -0.11297157 0.015644001 0.99347508 0.0020199511
1.2454847 -0.42227396 0.071039528 12958652 -0.13389362 -0.010393887 0.99094123 0.0034873574
1.2991339 -0.42342359 0.072295666 13091267 -0.1030353 -0.011256993 0.99461401 0.0019426984
1.3024079 -0.42561504 0.072510168 13090495 -0.11498376 -0.0039195102 0.99335963 0.0014577879
1.3250595 -0.42494023 0.077265173 12958911 -0.14712882 0.012284265 0.98904109 0.0019367794
1.3355794 -0.42302835 0.075909644 12958910 -0.11540017 -0.026279369 0.99297136 0.0014760157
1.3544307 -0.42300808 0.078343183 12893118 -0.11817823 -0.0085045062 0.99295604 0.0019187185
1.3690548 -0.42157188 0.079383969 13024704 -0.10611869 0.005289115 0.99433941 0.0022645262
1.2460825 -0.41230756 0.071329921 13024191 -0.13260767 -0.023225607 0.99089646 0.0034787762
1.2997277 -0.41275552 0.07316646 13090497 -0.12085112 -0.02461105 0.99236554 0.0017908677
1.3051566 -0.41558444 0.07263653 13090240 -0.10994103 0.0013990405 0.99393713 0.0014655916
1.3363457 -0.41183347 0.076262668 13024446 -0.11063085 -0.0058898088 0.99384409 0.0019562759
1.3409625 -0.41330492 0.076243162 13024704 -0.11321074 0.0057762973 0.99355429 0.00069271901
1.3668337 -0.41545936 0.077161849 12958398 -0.10868972 -0.0015723613 0.99407452 0.0021819733
1.3822112 -0.4137533 0.077274621 12958911 -0.10747242 0.0029206574 0.99420381 0.0014286393
1.3045743 -0.40427706 0.073480099 12958910 -0.11304954 -0.012590283 0.99350953 0.0015362565
1.3371444 -0.40092254 0.07732226 12893116 -0.10297437 -0.0063675628 0.9946636 0.0016633695
1.3476789 -0.40400344 0.07552439 12958909 -0.12104979 0.0013621636 0.99264556 0.0008664839
1.3828384 -0.40248623 0.07819432 12958911 -0.087383457 -0.008979992 0.99613428 0.0014024093
1.2769462 -0.39443642 0.070731461 12958911 -0.11732782 -0.03653552 0.99242097 0.0013871051
1.2887195 -0.39379546 0.076738074 12893118 -0.085409701 -0.0024124049 0.99634302 0.0015822302
1.3075918 -0.39271188 0.073553234 12958909 -0.10865135 -0.02319059 0.9938094 0.0012024002
1.3387318 -0.39071816 0.077532619 12827323 -0.072135307 -0.054724731 0.99589247 0.0011111577
1.3471287 -0.39456335 0.077806823 12761530 -0.13104671 0.0068623214 0.9913525 0.0017384877
1.3834655 -0.3912192 0.07911396 12893116 -0.093851246 -0.024233328 0.99529129 0.0015915374
1.2778983 -0.38395512 0.071912587 12893118 -0.11389027 -0.039890174 0.99269223 0.0011611482
1.289336 -0.38351735 0.077037528 12827323 -0.10269557 -0.0018324628 0.99471116 0.0015760827
1.3076478 -0.38187546 0.073585898 12958909 -0.08735247 -0.035121813 0.99555814 0.00029152076
1.314564 -0.38358289 0.073282912 12761788 -0.11427297 -0.028658254 0.99303591 0.001577393
1.3495528 -0.38211572 0.076481283 12761530 -0.13086838 -0.011443597 0.99133372 0.0010906121
1.355471 -0.38268647 0.075877547 12695737 -0.12915374 0.028818304 0.99120575 0.0026106192
1.2631593 -0.37636855 0.070397347 12761530 -0.13163161 0.019722465 0.99110258 0.0016668672
1.2761755 -0.37300169 0.071691588 12761532 -0.10316311 -0.038919531 0.99390274 0.0008779596
1.3067521 -0.37442005 0.075201392 12827066 -0.13017748 -0.017429356 0.99133748 0.0014021762
1.313379 -0.37249529 0.073020369 12959163 -0.080800951 -0.042620443 0.99581867 0.00024898656
1.3228236 -0.37409952 0.073386699 12629944 -0.083874166 -0.022827886 0.99621487 0.0018607955
1.3393408 -0.37977713 0.078425705 12761530 -0.072053775 -0.042796887 0.99648213 0.00076843955
1.3527333 -0.37377477 0.078400142 12629946 -0.12532705 -0.016050464 0.99198568 0.0019754888
1.2666684 -0.36359596 0.071251169 12827323 -0.11831973 -0.01813801 0.99280983 0.0011694345
1.283228 -0.36500785 0.070592284 12761530 -0.15577178 -0.022861458 0.9875285 0.0014073066
1.3073622 -0.36386338 0.075790137 12761530 -0.12646098 -0.018847015 0.9917925 0.0019411322
1.3161659 -0.36188212 0.074826688 12761273 -0.079216979 -0.037638053 0.99614662 0.00099596626
1.3399497 -0.36883613 0.079318762 12761532 -0.078228176 -0.015716538 0.99681157 0.0011211366
1.3548968 -0.36484283 0.078639627 12761531 -0.09474314 -0.032456841 0.99497253 0.0015938845
1.2643685 -0.35620758 0.070984751 12827325 -0.12292747 -0.0070821308 0.99239039 0.0013924356
1.270458 -0.35056674 0.072263211 13024445 -0.11401103 -0.005454015 0.99346453 0.0016240665
1.2834837 -0.35645109 0.072757319 12761531 -0.13020752 -0.031172052 0.9909966 0.0020076605
1.3090639 -0.35010284 0.0769234 12893118 -0.12588806 0.022224734 0.99179548 0.0023989619
1.3127662 -0.35794601 0.075046316 12695737 -0.10744437 -0.018643934 0.99403632 0.0023982807
1.3305523 -0.35384274 0.074259788 12629946 -0.093717672 -0.0336967 0.99502844 0.0016606941
1.3456278 -0.35881329 0.07862547 12826812 -0.12442698 -0.041784942 0.99134856 0.0010484272
1.351688 -0.35932288 0.079876631 12695739 -0.12727034 -0.016377509 0.99173284 0.00217101
1.2633905 -0.34678981 0.070648775 12827325 -0.14262794 -0.018300848 0.98960716 0.001248103
1.2761654 -0.34140438 0.071650326 13024702 -0.12361339 -0.0058616325 0.99231321 0.0022887636
1.291688 -0.34497344 0.072117582 12827325 -0.10541802 -0.0061857929 0.99440879 0.0022345064
1.314705 -0.34644499 0.075336434 12827324 -0.1021702 -0.0062329052 0.9947474 0.0016827773
1.3315367 -0.34300712 0.075480729 12761019 -0.10412139 -0.041178267 0.99371183 0.0016719651
1.3469549 -0.34826848 0.079684973 12761530 -0.07304503 0.001209639 0.99732792 0.0013946862
1.3523636 -0.34928423 0.077916652 12892605 -0.12657474 -0.025711562 0.99162382 0.001353136
1.2641635 -0.33656925 0.071379364 12761532 -0.13945092 -0.036646653 0.98955065 0.0011594901
1.2770536 -0.33102936 0.072103918 12958909 -0.1412992 -0.0079313144 0.98993516 0.0023447692
1.2924628 -0.33439523 0.073145226 12761532 -0.10333054 0.011702632 0.99457824 0.0019177001
1.3081281 -0.33571109 0.076440394 12564921 -0.10826805 -0.019077158 0.99393868 0.0022429402
1.3112892 -0.33934391 0.075445354 12958911 -0.088158771 -0.044740692 0.99510115 0.00072239526
1.3218138 -0.33120516 0.075751603 12827066 -0.12523381 0.038850985 0.99136627 0.0026383074
1.3325208 -0.33217141 0.07670173 12629944 -0.10603878 -0.032036968 0.99384576 0.0019420527
1.3533282 -0.3384456 0.078780338 12761531 -0.1044274 -0.012445299 0.99445462 0.0016447701
1.3652664 -0.33985984 0.079336911 12695739 -0.11283806 -0.019596882 0.99342012 0.0026815399
1.2673284 -0.32687634 0.071427211 12695739 -0.13263911 -0.035386007 0.99053252 0.0011063638
1.2837363 -0.32197315 0.071283728 12893118 -0.14417098 -0.014263512 0.98945004 0.0024453681
1.2932374 -0.32381701 0.074172854 12695738 -0.091964439 0.0064314432 0.99574155 0.0019673891
1.3087518 -0.3253113 0.076743394 12564153 -0.11093412 -0.041101798 0.9929775 0.0017573754
1.3121995 -0.32871103 0.075910211 12827325 -0.093479067 -0.048043828 0.99446142 0.00067616411
1.3281963 -0.32161987 0.075176865 12564151 -0.14275214 0.034408662 0.98916024 0.0029790103
1.3335052 -0.32133576 0.077922732 12629946 -0.10764414 -0.026523642 0.99383569 0.0018658955
1.3569999 -0.32806945 0.078763559 12564152 -0.10355505 -0.021508081 0.9943912 0.0017260916
1.2656486 -0.31609657 0.072505593 12629945 -0.13597283 -0.031767424 0.99020314 0.0010471229
1.2788301 -0.31027931 0.0730111 12761532 -0.16971189 -0.024103431 0.98519897 0.0023385833
1.3035709 -0.31549761 0.074643105 12629944 -0.095056929 -0.008576354 0.99543494 0.0020137739
1.3345366 -0.31122184 0.076876655 12564152 -0.13295124 -0.020605354 0.99090832 0.0021765961
1.2577136 -0.30588695 0.071609259 12629948 -0.17027497 -0.055826548 0.98381394 0.0016220938
1.2624806 -0.30476236 0.073143512 12629435 -0.12359103 -0.05782574 0.99064696 0.00078829576
1.2761127 -0.30816594 0.071703583 12629944 -0.11897856 0.016656525 0.99275708 0.0016917576
1.3085443 -0.30623552 0.074039638 12564151 -0.11802605 -0.0027578406 0.99300665 0.002344592
1.3133993 -0.30560017 0.073720396 12564151 -0.12468249 -0.021575518 0.99196208 0.002231346
1.3351903 -0.30104807 0.075498909 12432565 -0.16246127 -0.023986446 0.98642337 0.0019676364
1.3619298 -0.30669606 0.078653127 12564151 -0.10787612 -0.012388609 0.99408716 0.0011111791
1.3808579 -0.30906641 0.079846233 12498360 -0.10786507 -0.032159306 0.99364525 0.0017268441
1.2581695 -0.29371509 0.07412526 12629687 -0.12928486 -0.058538668 0.98987818 0.00084925134
1.2630904 -0.29652357 0.071168363 12761023 -0.10024262 -0.047922637 0.99380827 0.0029388152
1.2797183 -0.29990429 0.073464692 12761273 -0.17373587 -0.035767142 0.98414254 0.002002114
1.2818559 -0.2986646 0.07152763 12498358 -0.12433475 0.016287304 0.99210668 0.0022648817
1.3036978 -0.29441839 0.072382778 12498358 -0.062612884 -0.027650977 0.9976548 0.0014637868
1.3146508 -0.2958563 0.076115429 12564150 -0.11213727 -0.026075618 0.99335057 0.0016883679
1.3357967 -0.29015252 0.076388299 12563640 -0.16546251 -0.014935874 0.986103 0.0019321254
1.2588639 -0.28521803 0.073296398 12433848 -0.1533833 -0.042077221 0.98727059 0.0027171997
1.2817073 -0.28885633 0.073313475 12564406 -0.14194885 -0.027004346 0.98950553 0.0023633325
1.3042916 -0.28375036 0.073253572 12762302 -0.066067629 -0.05017728 0.99655277 0.0013786122
1.3155921 -0.2851899 0.076950699 12432313 -0.12547927 -0.03711481 0.99140173 0.0013810919
1.2148323 -0.27488047 0.070809454 11644850 -0.12839763 -0.048327867 0.99054456 0.00093692815
1.2700119 -0.27685317 0.071327716 12039359 -0.084294342 -0.040323902 0.99562466 0.0021983327
1.2855083 -0.27894828 0.073324293 12368826 -0.14715761 -0.043982636 0.98813468 0.0022569182
1.3048854 -0.27308229 0.074124366 9208710 -0.081628539 -0.072758757 0.99400353 0.00096735469
1.3105335 -0.2724992 0.078903049 11383218 -0.15783888 -0.048729204 0.98626184 0.0016644407
1.3274214 -0.27755171 0.076000422 11448243 -0.073875278 -0.024418589 0.99696851 0.0013417838
1.3364033 -0.27925697 0.07727766 12171454 -0.15859534 -0.037487529 0.98663175 0.0020197679
1.2549951 -0.262279 0.071390882 13484723 -0.11387317 -0.052980643 0.99208164 0.0026558377
1.2705917 -0.26643533 0.072178096 11115155 -0.085299961 -0.029779116 0.99591023 0.0019991563
1.2823831 -0.26877922 0.074825436 5057064 -0.14736012 -0.023263061 0.98880935 0.0018871204
1.2962437 -0.26921082 0.071854919 4140359 -0.13185352 -0.054446861 0.9897728 0.002263875
1.3142745 -0.2631011 0.076028019 12366240 -0.12499357 -0.055619434 0.99059737 0.0013944512
1.3283389 -0.26683539 0.076468915 12431520 -0.077188186 -0.035291903 0.99639177 0.0019288805
1.3428035 -0.26935321 0.07672888 8352880 -0.14758523 -0.030937087 0.98856539 0.0015113766
1.2631533 -0.25343686 0.073503226 12433338 -0.11030758 -0.047528557 0.99276042 0.0016411582
1.2832713 -0.2584042 0.075279027 12629685 -0.1185573 -0.045240901 0.99191606 0.002968421
1.291434 -0.25768933 0.074649066 12696242 -0.13479404 -0.064266182 0.98878741 0.0025583138
1.306073 -0.25174615 0.075865954 12498362 -0.077093937 -0.058718935 0.99529326 0.00081223639
1.3184154 -0.25319064 0.079456553 12432566 -0.13228235 -0.04573375 0.99015647 0.0017490832
1.3376161 -0.25746593 0.079056382 12497849 -0.13587976 -0.030058831 0.99026924 0.0011261856
1.2433139 -0.24043308 0.070810825 12432565 -0.098722532 -0.048495367 0.9939326 0.0018818496
1.2676022 -0.24242246 0.071973532 12236210 -0.0991624 -0.062517107 0.99310547 0.0017245151
1.2755297 -0.24639764 0.07533066 12498615 -0.1055324 -0.034039091 0.99383312 0.0023552477
1.2923902 -0.24716279 0.075835198 12695480 -0.13481799 -0.047024116 0.98975396 0.0029460937
1.3066667 -0.24107812 0.076736748 12235958 -0.083553299 -0.047537979 0.99536878 0.0014215846
1.3194822 -0.24364792 0.079629093 12367542 -0.095457807 -0.058975562 0.99368489 0.0017215045
1.3382225 -0.24657039 0.079945743 12300983 -0.12469038 -0.046035841 0.99112713 0.00059516117
1.2482301 -0.23108634 0.072124645 12367027 -0.12129001 -0.053949188 0.99114996 0.0027538496
1.262781 -0.23120883 0.074776173 12104372 -0.10529632 -0.048106793 0.99327666 0.0015567199
1.2771456 -0.23592542 0.073463321 12366772 -0.10403888 -0.018099703 0.99440855 0.0015066967
1.294999 -0.23805219 0.075178504 12301236 -0.1272441 -0.043868653 0.99090087 0.002906522
1.3130509 -0.23126113 0.07613638 12170417 -0.10083921 -0.043066252 0.99397022 0.0013399831
1.3446304 -0.23653017 0.079408109 12038579 -0.12427744 -0.047116641 0.99112821 0.00060886104
1.2116948 -0.22470677 0.07002914 12366772 -0.12149991 -0.015633173 0.99246836 0.0030937775
1.2390676 -0.22682735 0.070969939 12300979 -0.14955828 -0.035097592 0.98812979 0.0017965594
1.2486371 -0.22111817 0.074348837 12367026 -0.14277671 -0.066507921 0.98751783 0.0031981498
1.2694845 -0.22170126 0.074308485 12103600 -0.10319445 -0.037634749 0.993949 0.0014152029
1.2777276 -0.22546966 0.0743168 12366772 -0.11047509 0.0048244675 0.99386722 0.0022607183
1.2917657 -0.22818832 0.075383902 12367026 -0.11412275 -0.026651341 0.99310911 0.0021496541
1.3049033 -0.22760215 0.075296968 12235956 -0.12952757 -0.025899462 0.99123752 0.0029593629
1.3136473 -0.22054757 0.07701087 12038577 -0.10944003 -0.052491948 0.99260646 0.0017607237
1.2473054 -0.21389815 0.071368024 12235698 -0.10711817 -0.019806201 0.99404901 0.0015758206
1.2601849 -0.21260257 0.072408468 12366772 -0.10331811 -0.033823699 0.99407315 0.0028039252
1.276772 -0.21349502 0.074646071 12104111 -0.1115585 -0.010417508 0.99370325 0.0020093941
1.2868243 -0.21690406 0.077093363 12366772 -0.11549336 -0.01734535 0.99315679 0.0022457594
1.305867 -0.21699269 0.076492459 12103600 -0.11829001 -0.0023719743 0.99297631 0.0021673401
1.2238959 -0.20689158 0.07035622 12235440 -0.17985559 -0.0334277 0.98312491 0.0041309083
1.2457083 -0.2071436 0.071869522 12300979 -0.13784313 -0.048176408 0.98928177 0.0015369446
1.2556989 -0.20128383 0.072725236 12169648 -0.086460739 -0.0137392 0.99616051 0.0021552723
1.2761788 -0.20157778 0.075293571 12038831 -0.081238806 -0.016079083 0.99656498 0.00098051771
1.2886047 -0.20623647 0.075403064 12235186 -0.12171826 -0.022356497 0.99231285 0.0027304273
1.3076394 -0.20772858 0.07851854 12103602 -0.12108337 -0.012273795 0.99256647 0.0022131407
1.2247438 -0.19698678 0.070789248 12169646 -0.15845868 -0.018413385 0.98719394 0.0050267479
1.2518115 -0.19424745 0.073514417 12103600 -0.12802459 -0.022039726 0.99152607 0.0025057464
1.2771235 -0.19117947 0.076465279 12103854 -0.085553341 -0.0022474823 0.99633104 0.0009634567
1.2922628 -0.19616571 0.075435042 12169393 -0.12151916 -0.022381127 0.99233675 0.00276872
1.3135889 -0.19645211 0.077311188 12037807 -0.12699938 0.011718675 0.99183357 0.002413173
1.2245586 -0.18652315 0.070927486 12038062 -0.11153712 -0.019585665 0.99356729 0.0042367782
1.2533232 -0.18741998 0.072509915 12037807 -0.10013798 -0.017582595 0.99481821 0.0020503516
1.2673078 -0.18206978 0.071536049 12103342 -0.11734894 -0.01148899 0.99302429 0.0024495311
1.2838508 -0.18140797 0.076027334 11972268 -0.096607566 -0.0063353032 0.99530244 0.001414368
1.2930021 -0.18568587 0.076092958 12037806 -0.12092042 -0.0090944525 0.99262059 0.0021140496
1.3145566 -0.18579741 0.078511745 11906221 -0.12654796 0.0060682446 0.99194193 0.0022218903
1.2244415 -0.17445922 0.071567759 11840428 -0.098859623 -0.021029767 0.99487919 0.0019350064
1.2560728 -0.17362449 0.073742539 11972011 -0.10041698 -0.033050917 0.99439639 0.0020171825
1.2954087 -0.17203063 0.07426253 11775659 -0.10894347 -0.00040001425 0.99404788 0.0012200036
1.3213271 -0.17573048 0.078150272 11774635 -0.12807585 0.012314872 0.99168795 0.0018360298
1.192922 -0.16290815 0.070070654 12038061 -0.11048101 -0.056863256 0.99225026 0.0027004648
1.2275815 -0.16466865 0.071883067 11840425 -0.10333607 -0.031949453 0.99413329 0.0017156425
1.2599927 -0.16741952 0.073445112 11906475 -0.097138613 -0.026475482 0.9949187 0.0011800795
1.3222991 -0.16503055 0.079355955 11774635 -0.11528587 0.016012527 0.99320328 0.0013418974
1.310547 -0.13531953 0.07721445 1639696 -0.11522873 0.017762814 0.99318016 0.001121455
0.6946187 -0.091201127 0.076557845 9271369 -0.95137411 -0.30659097 0.029822847 0.044133775
0.67710888 -0.075398676 0.075070307 7235179 -0.81879926 -0.57399917 -0.0096286358 0.0050171702
0.66752577 -0.063137621 0.073537745 6445142 -0.86240655 -0.50490761 -0.036376111 0.0049198396
0.67417222 -0.066238806 0.074176565 7168355 -0.84936076 -0.52686727 -0.031575881 0.0037293483
0.66482496 -0.053709492 0.074245535 6642524 -0.90013629 -0.43415383 -0.035567809 0.0031163695
0.67058843 -0.057883821 0.077237338 6181973 -0.88284928 -0.46756026 -0.044323534 0.0020869635
0.65735036 -0.044056419 0.074747227 6116183 -0.94461989 -0.32309252 -0.057485852 0.0034982432
0.66238469 -0.046796285 0.075534016 6839644 -0.92291182 -0.38011515 -0.061206315 0.0043117758
1.2909219 -0.04682219 0.077173084 6577508 -0.12590532 -0.011985419 0.99196982 0.0010185021
0.6567229 -0.035841744 0.075008467 5786954 -0.95748538 -0.28064179 -0.066797659 0.0035544068
0.66192943 -0.037221774 0.070507586 6313299 -0.94163674 -0.32499015 -0.08775907 0.0032120168
0.6550895 -0.0266751 0.074532285 5260608 -0.97720516 -0.20326342 -0.061269727 0.0035510722
0.65414792 -0.015283569 0.073286608 4997436 -0.99400973 -0.095765784 -0.052664436 0.003570071
0.65340173 -0.0053037284 0.073740602 5391933 -0.9988988 -0.016880514 -0.043776505 0.004567117
0.65367681 0.0046338197 0.074960098 5062710 -0.99648303 0.082692333 -0.013549427 0.003506317
0.655007 0.015875284 0.07390891 4602159 -0.98558736 0.16262999 -0.046573922 0.0025889743
0.65674502 0.0247973 0.074943542 4667953 -0.97206533 0.23393725 -0.019035166 0.00347885
0.66056579 0.026848514 0.073214352 4996919 -0.96624124 0.25665143 -0.022537366 0.0041903388
0.65736264 0.032304641 0.074285343 4207658 -0.95087665 0.30956224 0.0021813235 0.0046429494
0.6618188 0.034882508 0.072733387 4536110 -0.95206434 0.30551851 -0.015230141 0.0036379928
0.66404444 0.044254761 0.075310409 4075815 -0.9097479 0.41445851 -0.024145007 0.0044748676
0.66623825 0.05307544 0.07538268 3747106 -0.8765735 0.4805755 -0.025809506 0.0049490971
0.67172509 0.057021428 0.076045446 3615518 -0.852745 0.52147311 -0.029863654 0.0043625073
0.67475623 0.065631911 0.074394368 3352603 -0.81573635 0.5784229 -0.0010276107 0.0063756434
0.68012291 0.067219675 0.074238032 3286293 -0.78011429 0.6256364 -0.00086385012 0.0040041152
0.67957622 0.071890838 0.075177506 3023383 -0.76163936 0.64160109 -0.090849355 0.0017719831
0.6846894 0.074888349 0.075300574 3153940 -0.75554043 0.65507406 0.0060556163 0.0050867368
0.68442577 0.081220202 0.075355306 3416851 -0.72179407 0.69209522 -0.0041973512 0.010130175
0.69544661 0.084639348 0.074011222 3088405 -0.70724833 0.70685393 0.012544774 0.0034605074
1.2954146 0.080165856 0.077258825 5985623 -0.14896628 -0.040319432 0.98801994 0.0021782354
0.70532328 0.093214966 0.074229434 3482906 -0.66085362 0.74956661 -0.037714474 0.0089503666
1.2618868 0.092706539 0.076490253 8946056 -0.1192529 -0.01141473 0.99279833 0.0016919298
1.2959991 0.090667106 0.078116 8222837 -0.15969045 -0.042229716 0.98626351 0.0018383097
1.262813 0.10290127 0.077639073 10327191 -0.12397495 -0.0090072528 0.99224448 0.001565087
1.263739 0.11309598 0.078787833 10393236 -0.12404659 -0.0090424642 0.99223518 0.0015455884
1.2721784 0.12234937 0.077192619 9932684 -0.11604483 -0.030255113 0.99278307 0.0016367913
1.1336359 0.1657076 0.070028186 10326929 -0.096261926 0.028214829 0.99495608 0.002581246
1.1604528 0.16737334 0.070054978 10458256 -0.11575573 0.021438913 0.99304634 0.0017462047
1.1531262 0.17408061 0.070133537 10261137 -0.10692328 0.038706645 0.99351358 0.0020318783
1.1865435 0.17192246 0.074471116 10458515 -0.12960045 0.070384555 0.98906511 0.0026326289
1.1717469 0.18973932 0.07054913 10195343 -0.13357623 -0.0081476429 0.99100506 0.0026358224
1.1843567 0.18711211 0.071790844 10195343 -0.1077109 0.019581795 0.99398941 0.0015721569
1.1950173 0.18217486 0.072458223 10261135 -0.13651504 0.019382019 0.99044842 0.0028899054
1.2118556 0.18732706 0.07612358 10195343 -0.13604778 0.057705112 0.98902029 0.0025231342
1.2313068 0.18652289 0.073404521 10195084 -0.11324143 0.01065344 0.99351043 0.0022949835
1.2515155 0.18904161 0.078922093 10129291 -0.12115162 -0.019052157 0.99245119 0.0022826083
1.1722798 0.19931558 0.071330845 10195343 -0.1194891 -0.0017117858 0.99283403 0.0028020369
1.1938193 0.19373517 0.072511494 10129550 -0.12442278 0.036799524 0.99154669 0.0029116375
1.2181185 0.19541405 0.077800483 10195343 -0.1556247 0.095969222 0.98314339 0.002133636
1.2271652 0.19540229 0.074957311 10064011 -0.12009183 0.014320232 0.99265951 0.0023753247
1.2573395 0.19974972 0.078263432 10064011 -0.1108171 -0.0049736169 0.99382842 0.0024502596
1.146971 0.20069458 0.071077943 10128524 -0.12546015 0.02342087 0.99182218 0.0018009483
1.1681806 0.20050249 0.070263237 10129550 -0.12219787 0.014820986 0.9923951 0.0017013205
1.1776562 0.2098408 0.070724964 10129551 -0.10520449 0.0061680302 0.9944315 0.0022505799
1.1944053 0.20505357 0.073316306 10063500 -0.12800686 0.023635356 0.99149162 0.0034220619
1.2038269 0.20155565 0.071105748 10129551 -0.11744246 0.024894513 0.99276763 0.0021942551
1.2167437 0.20068967 0.073605508 10063758 -0.1250028 0.034552082 0.99155462 0.0020584399
1.2257028 0.20566522 0.076240808 10063501 -0.14098915 0.050787855 0.98870754 0.0025182441
1.2396485 0.20295119 0.077259004 9997964 -0.11281782 0.01199992 0.99354327 0.0014948371
1.1487993 0.21479918 0.070129961 9997965 -0.12761557 -0.0201056 0.99162 0.0027765909
1.1555456 0.21126601 0.070086807 10062731 -0.12336854 0.0105097 0.99230528 0.0020117941
1.1733458 0.21846801 0.072894156 10063245 -0.1044146 0.0071572294 0.99450815 0.001851851
1.193377 0.21560158 0.073009908 9866378 -0.10300234 0.0017632347 0.99467957 0.0021238392
1.2034634 0.21218276 0.072686031 10129292 -0.099718623 0.015628394 0.99489295 0.0025502476
1.2198584 0.21311757 0.077828079 10129291 -0.12108727 0.018187527 0.99247521 0.0025115449
1.2232888 0.21382236 0.07569544 9997965 -0.13643484 0.029937696 0.99019659 0.003439879
1.2397127 0.21782999 0.076081917 9865868 -0.13733071 0.028488085 0.99011552 0.0018221271
1.2405567 0.21294987 0.078385681 9997452 -0.11471388 -0.00056667626 0.99339843 0.0017285615
1.2590355 0.21955939 0.079129487 10063498 -0.089000031 -0.0018245541 0.99602997 0.0012012208
1.2631698 0.21053372 0.077608109 10260110 -0.095075488 -0.02291053 0.99520642 0.001535971
1.1752038 0.22874796 0.071858212 9931142 -0.10102921 0.005767629 0.99486679 0.0018255096
1.1942346 0.22740413 0.073759168 9865352 -0.099742725 -0.00080824876 0.99501294 0.0021739819
1.2065701 0.22232398 0.072619632 9932170 -0.095105141 0.016669331 0.99532765 0.00271289
1.2289531 0.22340551 0.074602947 9932169 -0.12509929 0.0022762078 0.99214166 0.0022720664
1.2348125 0.22725892 0.07668113 9735048 -0.13084395 0.038303602 0.99066275 0.0029407786
1.2463385 0.22392768 0.078124464 10128270 -0.11302498 0.01584468 0.9934659 0.0021151607
1.256667 0.22105829 0.079841018 10129293 -0.09945485 0.04416519 0.99406141 0.0032312593
1.1792616 0.23868324 0.073079288 9408124 -0.10128929 -0.0072231153 0.99483085 0.003714548
1.1995177 0.23813541 0.073378623 9536901 -0.085363723 -0.011213696 0.99628681 0.0020458393
1.2023215 0.23823974 0.073155642 9733506 -0.12759414 -0.002329424 0.99182373 0.0030801161
1.2121702 0.23300168 0.071976915 9931399 -0.10480741 0.0068612127 0.99446887 0.0026553129
1.2291549 0.23227729 0.074096501 9800334 -0.13347998 -0.00052951276 0.99105144 0.0030403621
1.2354091 0.23642407 0.076663159 9668995 -0.12922193 0.021910409 0.99137366 0.0023821234
1.2521272 0.23498084 0.07787174 9473414 -0.10830468 0.015347764 0.99399936 0.0021598451
1.2607315 0.23936899 0.079995543 9735306 -0.11993881 0.0044555478 0.99277127 0.0014506553
1.2061713 0.2487337 0.073284507 5980746 -0.12101015 -0.011403251 0.99258578 0.0025575154
1.2128534 0.24270803 0.072588235 8418166 -0.11435274 -0.010198117 0.99338782 0.0027712341
1.2251891 0.24114084 0.07662946 9604739 -0.12590373 -0.012530692 0.99196339 0.0029746732
1.2347221 0.24591398 0.077358395 7232873 -0.12415437 0.0079555437 0.99223101 0.0021376715
1.2588989 0.24632038 0.0773516 9075071 -0.10138042 0.010927453 0.99478769 0.0018177412
1.1542192 0.25534496 0.072020605 10129293 -0.11111572 -0.0040987059 0.99379903 0.0017896103
1.188239 0.25535983 0.071306713 10458006 -0.11776724 -0.0053587081 0.99302679 0.0033154588
1.2050686 0.25520512 0.075114384 10985882 -0.087307386 -0.017018043 0.99603605 0.0023299498
1.2133493 0.25508538 0.072247684 7165545 -0.13063039 0.003250171 0.99142581 0.0034236349
1.2352791 0.25501919 0.07734178 10326425 -0.11455631 -0.013626183 0.99332333 0.0022502251
1.2656384 0.25391832 0.078231782 7298921 -0.10962763 0.006814701 0.99394941 0.0017353133
1.1587876 0.26531741 0.071661621 9734792 -0.12995286 -0.013385137 0.99142987 0.0022178954
1.1649872 0.26511246 0.070031017 9997707 -0.10545653 -0.018740676 0.99424732 0.0014832271
1.1896077 0.26964346 0.072969496 9997187 -0.12969469 -0.011753291 0.99148428 0.0022710459
1.2035793 0.26511368 0.075735964 9800328 -0.10814934 -0.028394388 0.99372911 0.0029631865
1.2162004 0.26520896 0.072547615 9930888 -0.13652921 0.0015507106 0.99063486 0.0024250604
1.2326971 0.26298952 0.078100413 9930634 -0.10458808 -0.020527225 0.99430376 0.0017957732
1.2442126 0.26777858 0.076530516 9735303 -0.10736928 -0.020332202 0.99401134 0.0021368503
1.2665253 0.26396823 0.079021394 9931913 -0.10648189 -0.002069246 0.99431252 0.00138249
1.159328 0.27432594 0.07192409 9799556 -0.13336736 0.0046584234 0.99105573 0.0021234835
1.1655165 0.27462044 0.070807099 9996937 -0.10694097 -0.015709564 0.99414134 0.0015618047
1.1870991 0.2729308 0.070205241 9800326 -0.13391203 -0.024055291 0.99070126 0.0038079692
1.193722 0.276319 0.071053743 9865098 -0.13070194 -0.02687135 0.99105746 0.0032576334
1.2053425 0.27645248 0.075582534 9800328 -0.12252319 -0.013603805 0.99237245 0.0044700871
1.2169263 0.27796784 0.074155696 9668996 -0.12161127 -0.023129726 0.99230832 0.0019796528
1.2376382 0.27314314 0.077167183 9799559 -0.091315329 -0.0023776516 0.99581927 0.0012171798
1.2430017 0.27671733 0.07765612 9734533 -0.10407045 -0.021374088 0.99434024 0.0019598315
1.2665472 0.27784604 0.079405755 9866121 -0.10300318 -0.01760331 0.99452525 0.00088609487
1.2732792 0.27129686 0.079137802 9866371 -0.10917498 0.0035961717 0.99401605 0.0018585395
1.1660457 0.28412843 0.071583211 9931396 -0.10629681 -0.018409083 0.99416405 0.0013488652
1.1719687 0.28649986 0.070330083 9602949 -0.1406616 0.010440271 0.99000269 0.0023369384
1.194849 0.28488004 0.073384762 9734276 -0.11773456 -0.014288646 0.99294233 0.002214079
1.2061535 0.28592509 0.075996667 9799558 -0.12649488 0.006709855 0.99194461 0.0041045039
1.2161598 0.28683066 0.076283976 9799811 -0.12673745 -0.0074515003 0.99190825 0.0016575091
1.2431949 0.28624582 0.077323966 9602690 -0.098214202 -0.010896146 0.99510568 0.0020249952
1.2723639 0.28920835 0.07918784 9734533 -0.11232018 -0.031950034 0.99315834 0.00070988637
1.1714281 0.29493022 0.070962816 9865349 -0.09732601 -0.010029651 0.99520206 0.00096341578
1.1945297 0.29486826 0.073413782 9668485 -0.12312674 0.0042393855 0.99238193 0.0028655948
1.2042288 0.29798612 0.070604265 9603206 -0.10601739 -0.033495273 0.99379998 0.0022491526
1.2141762 0.29538274 0.076427147 9733763 -0.11360202 0.010770301 0.99346799 0.0027288655
1.2449009 0.29450473 0.077493832 9734274 -0.10286366 0.0094925156 0.99465019 0.0021496238
1.173189 0.30357629 0.071199767 9536897 -0.11090029 -0.006618748 0.99380952 0.0023002501
1.1959935 0.3054812 0.075615212 9471363 -0.11003767 -0.015000556 0.99381423 0.0021468177
1.2012211 0.30665368 0.072865844 9668740 -0.11210743 -0.0022213238 0.99369365 0.0025708084
1.2127835 0.30617058 0.075679392 9602947 -0.12258287 0.034270901 0.99186641 0.003110291
1.2220274 0.30288905 0.076268151 9668227 -0.12012447 -0.0028666211 0.99275476 0.0014053923
1.2398692 0.30326948 0.079307169 9536386 -0.092402682 -0.0071603758 0.99569595 0.0018957981
1.2463056 0.30445689 0.077395886 9734015 -0.10932247 0.0042353128 0.99399734 0.0025494036
1.2501283 0.30559796 0.077755898 9537156 -0.1017555 0.012172386 0.994735 0.0016319879
1.1481571 0.31327608 0.070196033 9536897 -0.11830997 0.014765032 0.99286693 0.0019500196
1.1695672 0.31265292 0.071741611 9339777 -0.14515242 0.0010060556 0.98940885 0.0024159213
1.1802652 0.3124598 0.070504993 9471361 -0.10200793 0.0032357275 0.99477834 0.0043415138
1.1959152 0.3105284 0.076726153 9339775 -0.09896753 -0.016260911 0.9949578 0.0032734859
