# .PCD v0.7 - Point Cloud Data file format
VERSION 0.7
FIELDS x y z rgb normal_x normal_y normal_z curvature
SIZE 4 4 4 4 4 4 4 4
TYPE F F F U F F F F
COUNT 1 1 1 1 1 1 1 1
WIDTH 522
HEIGHT 1
VIEWPOINT 0 0 0 1 0 0 0
POINTS 522
DATA ascii
0.92447358 0.38434803 0.046757206 9007987 -0.091528982 -0.052493379 0.99441791 0.0024907324
0.93573296 0.38304684 0.048120737 9665920 -0.097714484 -0.053708762 0.99376422 0.0013774942
0.94641447 0.38565356 0.048389308 9204594 -0.12567595 -0.03895418 0.9913063 0.0037957001
0.95608449 0.38235402 0.047785252 9534334 -0.089890063 -0.068019316 0.9936263 0.0010105235
0.81195331 0.39539075 0.040156811 9204072 -0.15931003 -0.00040376745 0.98722851 0.0016253938
0.82056463 0.39290464 0.040277153 9203820 -0.10319172 -0.011643581 0.99459332 0.0014912323
0.84319919 0.39653149 0.042527705 9599095 -0.11049876 -0.022527907 0.99362093 0.0011837236
0.85653198 0.39517158 0.043574408 9138801 -0.12476093 -0.002510662 0.99218369 0.0028599233
0.86014444 0.3974449 0.04291302 9271675 -0.1127367 -0.057950597 0.99193358 0.0025146443
0.87641573 0.39732185 0.04366954 9599611 -0.087680258 -0.015655832 0.99602562 0.0037843294
0.89479947 0.39661643 0.045090824 9796734 -0.096574575 -0.040865477 0.99448651 0.0029622063
0.9040463 0.39510635 0.047262866 8745071 -0.10822585 -0.059180636 0.99236327 0.0025763372
0.92740428 0.39474094 0.04674916 9007986 -0.089297138 -0.054384071 0.99451923 0.0031914287
0.93342221 0.39520204 0.046603292 9665405 -0.10377749 -0.043775845 0.99363673 0.0056433547
0.94709694 0.39488199 0.048718385 9138801 -0.10767867 -0.049103308 0.99297237 0.0048075318
0.95393956 0.3929399 0.04963848 9468797 -0.10317865 -0.061823573 0.99273968 0.0017232531
0.97804064 0.39552885 0.049963817 9927293 -0.10025544 -0.05231332 0.99358559 0.0042575016
0.82512599 0.40470484 0.042429209 9204846 -0.12245493 0.009314239 0.99243039 0.0012268997
0.84603941 0.40546447 0.042046741 9271158 -0.10932945 -0.04226416 0.99310666 0.0018428422
0.85800159 0.40518737 0.04393515 8942191 -0.11352561 -0.0028063427 0.99353111 0.0036725106
0.86857885 0.4037658 0.043966636 9402999 -0.11663511 0.024162244 0.99288088 0.0071766889
0.87549609 0.40612093 0.044424973 9402231 -0.080596752 -0.019618301 0.99655372 0.0030989507
0.88858336 0.40359128 0.045571625 8810606 -0.12222833 -0.015925851 0.99237424 0.0042586732
0.89376044 0.40294087 0.044868618 9468026 -0.10889138 -0.019313611 0.99386597 0.0052404623
0.90394342 0.40607822 0.046406552 8876914 -0.11654111 -0.043546274 0.99223071 0.0031089331
0.91049248 0.40309808 0.049106926 9139314 -0.11553415 -0.031800915 0.99279433 0.002680942
0.923612 0.40570897 0.047034413 9469051 -0.058542948 -0.055539757 0.99673873 0.0025009583
0.93417192 0.40427682 0.047045279 9139316 -0.099090204 -0.034363821 0.9944849 0.0049103331
0.94901884 0.40149862 0.048989773 8350311 -0.12097131 -0.038184058 0.99192131 0.0025535717
0.82754421 0.41587439 0.041838706 9270384 -0.11562096 0.025515957 0.99296564 0.0014379474
0.84546739 0.41450942 0.042213887 9599351 -0.09531188 0.034388147 0.99485332 0.0018350546
0.85344231 0.41572982 0.043514222 9402745 -0.11522354 -0.018572582 0.99316591 0.0026450169
0.86204273 0.41842073 0.043614656 8679789 -0.10026811 0.0060390099 0.99494213 0.0038895272
0.87799847 0.41281104 0.043143108 8876399 -0.086177267 -0.0082746726 0.99624544 0.0034767413
0.88343596 0.41893855 0.041017152 8744811 -0.10536396 0.02175932 0.9941957 0.0066037495
0.89326203 0.41408268 0.04582452 9336438 -0.11998915 -0.01452105 0.99266899 0.0040915422
0.90461123 0.41707069 0.047448069 8876914 -0.13465722 0.0022654152 0.99088967 0.002354681
0.91649997 0.41224879 0.048182227 8875885 -0.11242427 0.014518727 0.99355423 0.0050042099
0.9238072 0.41697708 0.04794848 9337467 -0.064512759 -0.062446374 0.99596119 0.0023484214
0.93683678 0.41055745 0.049321763 9138801 -0.10848956 -0.029789923 0.99365115 0.0054595098
0.94315958 0.41796261 0.048547909 9534075 -0.099269189 -0.038456582 0.99431723 0.0042392379
0.82172728 0.42437568 0.041206073 8810605 -0.10071149 -0.012728847 0.99483424 0.0027344329
0.83900827 0.42859119 0.040212959 8876914 -0.10047275 -0.044828072 0.99392945 0.0024461204
0.84714592 0.42651027 0.042847916 9402743 -0.10087128 0.0011897417 0.9948988 0.0025863673
0.85400313 0.42793876 0.041053951 8350046 -0.13415453 0.088011511 0.98704433 0.0046394188
0.86443901 0.42612553 0.043003261 9007727 -0.12474061 0.061197229 0.9903003 0.0030172435
0.87280017 0.42531383 0.045831446 9599097 -0.11984599 0.013139338 0.99270552 0.0046106311
0.88526148 0.42616126 0.043565635 9205107 -0.11474045 -0.011776981 0.99332565 0.004552043
0.89451128 0.42618552 0.045148611 8745069 -0.13730466 -0.031637803 0.99002343 0.0029108818
0.90744931 0.42587292 0.045771275 8942450 -0.12236378 -0.023546264 0.99220592 0.0045625404
0.92164087 0.42455134 0.04803288 8876655 -0.10314652 -0.010876047 0.99460673 0.0042713038
0.93804401 0.42316806 0.048780322 8284516 -0.1267097 -0.028231645 0.99153805 0.0023674471
0.94079989 0.42311227 0.049434096 9337468 -0.0974935 -0.04940879 0.99400896 0.0017921014
0.82353884 0.43905684 0.041160583 8613995 -0.11147002 -0.029124254 0.99334097 0.0042688074
0.8304435 0.43726039 0.04137361 9204591 -0.10842887 0.074815817 0.99128491 0.002086384
0.84683001 0.43792096 0.041943736 9205364 -0.11161629 0.012272194 0.99367559 0.0030544333
0.86571556 0.43498522 0.043766379 9271157 -0.1110844 -0.013464055 0.99371976 0.0039307117
0.87510461 0.4330714 0.042462796 9335923 -0.096289121 -0.016944807 0.99520916 0.00831261
0.88487977 0.43856919 0.044562209 8810605 -0.12377561 -0.0093350252 0.9922663 0.0047695786
0.89187849 0.43347076 0.047766253 9402488 -0.12466867 -0.034029346 0.9916147 0.0029743249
0.90474653 0.43168527 0.046046406 9074037 -0.099761747 -0.020669952 0.99479669 0.006612923
0.91670692 0.43570033 0.046174325 8678764 -0.11085024 0.014618981 0.99372959 0.0059492798
0.92451656 0.43402272 0.048762813 8679532 -0.087033629 -0.013356143 0.99611586 0.0026199135
0.93919569 0.4344056 0.049980819 8152930 -0.12202918 0.0029026198 0.9925223 0.0024397119
0.94247591 0.43221557 0.049245842 9271159 -0.096523948 -0.01280403 0.99524832 0.0040217489
0.82414299 0.44949877 0.041817725 8745582 -0.10173583 0.0060143247 0.9947933 0.006089407
0.83838356 0.44877177 0.042387694 8811375 -0.11636619 -0.0083392346 0.99317139 0.0036290509
0.85104692 0.44739139 0.042456225 9336436 -0.13914271 -0.02242244 0.99001849 0.006451909
0.86361331 0.44424343 0.044588506 9402486 -0.14830486 -0.037746191 0.98822111 0.006644961
0.87796789 0.44662073 0.044394702 8942191 -0.13450089 -0.024636738 0.99060714 0.004886027
0.88751358 0.44926438 0.043686211 8283746 -0.14870614 0.028420128 0.988473 0.0035175199
0.89489156 0.44573641 0.047293082 8942193 -0.10726734 -0.019565409 0.99403769 0.0040735891
0.90469855 0.44246206 0.045223489 8745069 -0.1183439 0.015637707 0.99284947 0.0051023504
0.91711318 0.44450098 0.046546467 8547432 -0.11882814 0.03140315 0.99241811 0.0051355739
0.92509741 0.4431504 0.049403012 8087392 -0.10366323 0.020417633 0.99440289 0.0028647159
0.94380152 0.4457581 0.049296603 8547691 -0.11190352 0.03121667 0.99322867 0.004681387
0.8245458 0.45646006 0.042255849 8745580 -0.11631161 0.04880131 0.99201316 0.0044804858
0.8399232 0.45989174 0.042635173 8877171 -0.13616028 0.036750369 0.99000496 0.0048343581
0.85144866 0.45751458 0.044628233 9074803 -0.11492878 -0.011492331 0.99330729 0.0029156685
0.86580598 0.45583999 0.044284984 9402742 -0.15328217 -0.02938992 0.98774534 0.0067218356
0.87937522 0.4566105 0.046527579 9336950 -0.11936887 -0.018789964 0.99267215 0.0063968319
0.89445257 0.45536563 0.046196323 8744553 -0.1402854 0.016524259 0.98997319 0.00356373
0.91648102 0.45708126 0.046798721 8613227 -0.089389265 -0.00094022974 0.99599636 0.0034083531
0.9266274 0.45293716 0.045303598 9139057 -0.12657218 0.03756427 0.99124587 0.0053024031
0.94686794 0.45441353 0.048911236 8613229 -0.11069352 0.028283998 0.99345201 0.0037913797
0.82772321 0.46505865 0.041418821 8811372 -0.14920554 0.071453609 0.98622113 0.0041315826
0.84904033 0.46019557 0.042240173 9533807 -0.16266434 8.1663951e-05 0.98668146 0.010529948
0.85113877 0.46769664 0.045714259 9140340 -0.12568736 0.025182538 0.99175024 0.0031884271
0.86469388 0.46559265 0.045337886 9402741 -0.15043384 0.0066944226 0.98859739 0.0059004817
0.87672734 0.46387792 0.048007116 9336949 -0.11987045 -0.013296218 0.99270052 0.0065761558
0.89439654 0.46331522 0.048552394 9467768 -0.080011249 -0.021278046 0.99656683 0.0048992392
0.90767413 0.46531242 0.044614106 8218978 -0.13417447 0.050111413 0.98968995 0.0025885757
0.91805339 0.46507874 0.047061697 8613227 -0.083832689 0.002201126 0.99647737 0.0038739443
0.92701036 0.4600119 0.045206577 9074034 -0.1549073 0.056674965 0.98630208 0.0041125319
0.93335378 0.46509314 0.049034134 8152672 -0.12348812 0.06690497 0.99008811 0.0028276946
0.9517597 0.46582845 0.047920696 8547691 -0.12139814 0.029137064 0.99217612 0.0033780234
0.82997799 0.47314951 0.041009158 8811372 -0.19226003 0.059254542 0.97955346 0.0049152346
0.84424776 0.47267762 0.041630536 9074545 -0.14942138 0.038912859 0.98800761 0.0051367423
0.85899615 0.47918913 0.042875618 9074547 -0.12504542 0.07530129 0.98928928 0.0037173096
0.86779839 0.47517124 0.046271175 9074545 -0.12545423 0.046722714 0.99099863 0.0036508259
0.88037568 0.47315136 0.048167318 9008754 -0.13550794 0.046503097 0.98968434 0.0037207471
0.89809638 0.47442353 0.047528755 9533816 -0.08883407 0.0098164733 0.99599814 0.0044987067
0.92326289 0.47201726 0.046509385 7955806 -0.094120473 0.045005389 0.99454302 0.002434375
0.95246065 0.47574124 0.04975827 8482667 -0.10405868 0.0046917847 0.99456012 0.0033950224
0.83316028 0.4818317 0.040177345 8811375 -0.16083974 0.058364905 0.98525333 0.0057961806
0.84347039 0.48247626 0.042925745 8942959 -0.14301178 0.069954611 0.98724568 0.004983265
0.86127454 0.48749006 0.042507559 9074545 -0.12822646 0.069516636 0.98930556 0.0035949312
0.87122846 0.4876892 0.045744479 9008754 -0.1136401 0.060436182 0.99168217 0.0042553102
0.88360733 0.4820919 0.047436774 9008754 -0.12334916 0.059340797 0.99058759 0.0033538211
0.9011566 0.48632723 0.047783732 9074806 -0.11255679 0.0033520535 0.99363971 0.0039576171
0.94184715 0.48033077 0.047531575 8087650 -0.11873269 0.077665709 0.98988414 0.0021016721
0.9575519 0.48697773 0.049857259 8021857 -0.12900349 0.087604091 0.98776698 0.0020295419
0.83397287 0.49587575 0.041061223 8746093 -0.15488441 0.072150372 0.98529446 0.0051957029
0.84269267 0.49226749 0.044220418 8942961 -0.13977146 0.07904838 0.98702353 0.0048135016
0.8644861 0.49638113 0.041731387 9008752 -0.13234526 0.039415911 0.99041969 0.0036530576
0.88565016 0.49394104 0.047535881 9008755 -0.13374607 0.033361293 0.99045396 0.0036389208
0.90462273 0.49917161 0.047320157 9009011 -0.1433745 0.023819946 0.98938185 0.0035023778
0.91788661 0.49644181 0.049031734 9271155 -0.16213119 0.0095134368 0.9867233 0.0030542675
0.86604589 0.50780034 0.042004853 9008753 -0.12385437 0.053085819 0.99087942 0.0030144714
0.87580782 0.50448227 0.045048758 8942959 -0.14567193 0.049308933 0.98810339 0.0039617731
0.88769555 0.50583559 0.04763785 8942961 -0.12925738 0.030162305 0.99115229 0.0039426587
0.90223825 0.50502092 0.048960239 9009011 -0.13671762 0.020638227 0.99039507 0.0032195398
0.91872698 0.50507724 0.049687803 8811632 -0.18454796 -0.0015493333 0.9828223 0.003123794
0.8755067 0.51486599 0.046140432 8942961 -0.11531335 0.031385623 0.9928332 0.0043888404
0.89281023 0.51604515 0.046125025 8942959 -0.13517421 0.020119347 0.99061757 0.0035653866
0.89605331 0.52518308 0.045406908 8942961 -0.14027101 0.0062280744 0.99009359 0.0030569704
0.94463938 0.54022312 0.049557656 8876657 -0.1132669 0.088801548 0.9895882 0.0022298638
1.1728493 -0.84344709 0.056149393 14602722 -0.079280458 -0.020337211 0.99664491 0.0057585435
1.2107853 -0.84608036 0.058498174 14604003 -0.05853381 0.014551328 0.99817938 0.0053972318
1.1738582 -0.83360392 0.057200909 14472930 -0.09712027 -0.02984377 0.99482512 0.0050179772
1.2164576 -0.83885026 0.058293581 14274270 -0.058761314 0.014639072 0.99816471 0.005353536
1.227705 -0.8349607 0.056559831 12232621 -0.059451662 0.029196162 0.99780416 0.0060030757
1.1481785 -0.82782549 0.053198725 11574453 -0.13463818 -0.029657641 0.99045092 0.0022909842
1.1794889 -0.8266778 0.056926906 11182241 -0.069219783 -0.042417414 0.99669927 0.003522292
1.228754 -0.82472551 0.057653248 15128789 -0.039007444 0.0065978398 0.99921715 0.0056198747
1.1245213 -0.81284755 0.05031687 14865368 -0.10262062 -0.020125402 0.99451697 0.0029025874
1.1491687 -0.81816316 0.054230928 14667738 -0.13258745 -0.037293993 0.99046946 0.0025813463
1.1805016 -0.8167969 0.057982445 14602448 -0.092315137 -0.034107871 0.9951455 0.0027974502
1.1208954 -0.80041355 0.052733094 14537181 -0.099088982 -0.028691038 0.99466491 0.0032664924
1.1501591 -0.80850083 0.055263132 14603227 -0.12157029 -0.027872376 0.99219143 0.0029577587
1.1301482 -0.79619539 0.051225424 14339804 -0.092610121 -0.0082254782 0.99566847 0.0038229274
1.1419176 -0.79308945 0.0590114 14602972 -0.12786953 -8.0265112e-05 0.99179101 0.0037425584
1.2338445 -0.79597414 0.057579845 15195366 -0.11438563 -0.043931168 0.99246454 0.003803273
1.09365 -0.78330696 0.051355958 14406108 -0.10620467 -0.027336672 0.99396849 0.0021103818
1.1311238 -0.78667635 0.052242339 14274011 -0.094291046 -0.00014283507 0.99554467 0.0038210279
1.1549468 -0.78574467 0.057168663 14405596 -0.12676953 0.035524432 0.99129587 0.0035307808
1.1881772 -0.78992069 0.059839666 14602972 -0.096474193 0.0018977971 0.99533373 0.0028729904
1.1938349 -0.78273082 0.059593797 14602974 -0.072173938 0.0073469654 0.997365 0.0029643537
1.0991901 -0.77696157 0.050908864 14340061 -0.097738028 -0.020029716 0.99501061 0.0022968585
1.1348941 -0.77379477 0.053074479 14274009 -0.077074736 0.032010343 0.99651134 0.0034361824
1.1670775 -0.77758378 0.055623323 14405595 -0.12008572 0.07077805 0.99023736 0.0027963195
1.2182024 -0.77730054 0.057373405 15590898 -0.11863744 -0.059356473 0.991162 0.0026627453
1.1042962 -0.76531011 0.051253647 14274007 -0.080702864 0.00048645865 0.99673814 0.0020456102
1.1423626 -0.76308089 0.052804708 14208216 -0.066945657 0.040706202 0.99692595 0.0030152395
1.1670444 -0.76596951 0.058640163 15458539 -0.14855818 0.012343829 0.98882663 0.0024868576
1.1751473 -0.76174641 0.055235393 14801121 -0.12290183 0.014960116 0.99230605 0.0022541231
1.1915811 -0.7641992 0.059843212 15261931 -0.12177747 0.024734937 0.99224919 0.0037748914
1.213921 -0.76467848 0.057960346 15655662 -0.10552339 -0.037586238 0.99370629 0.0035584187
1.1057284 -0.75133669 0.052746385 14142425 -0.091562316 0.026213519 0.99545431 0.001852178
1.1471496 -0.75753301 0.053601831 15063780 -0.097703531 0.019794306 0.99501872 0.0030207662
1.1672089 -0.75057203 0.059804529 15919345 -0.17417723 -0.0046500997 0.98470336 0.0022106653
1.1793594 -0.75357717 0.056086004 14142676 -0.14844628 0.032067459 0.98840046 0.0016817885
1.2096354 -0.75213259 0.058548301 15589869 -0.12985151 -0.030737627 0.99105692 0.0033941884
1.1149774 -0.74697405 0.051187575 14076117 -0.069258116 0.013223701 0.99751115 0.0013828371
1.1429938 -0.74710339 0.055845708 15787759 -0.098046891 0.012916918 0.99509799 0.0031590555
1.1535786 -0.74926931 0.052104294 14010835 -0.087997898 0.0018408448 0.99611896 0.0014714572
1.1637425 -0.74394977 0.058788285 15195370 -0.098318465 -0.0065052365 0.99513376 0.0012013749
1.1757251 -0.74112326 0.058467388 14142163 -0.1549814 -0.017026082 0.98777068 0.0019904848
1.2149769 -0.74517369 0.057692841 15524074 -0.11920386 -0.019617762 0.99267596 0.0040735602
1.1075324 -0.73646796 0.055252075 15655662 -0.086860798 -0.019905359 0.99602157 0.0018143629
1.1159391 -0.73759061 0.052189976 13878992 -0.069833204 0.0061502755 0.9975397 0.0013489632
1.1205933 -0.73034823 0.052063704 13813199 -0.068940341 0.00021387637 0.99762076 0.0011498533
1.1355046 -0.73586094 0.05433961 14932453 -0.11593061 0.0036992575 0.99325043 0.0019670613
1.1434399 -0.73762888 0.055962026 15655662 -0.095774904 0.004926892 0.99539083 0.0032727576
1.1545689 -0.73960704 0.053136468 14010835 -0.094565421 -0.023403838 0.99524349 0.0015770064
1.1781176 -0.73434567 0.053708747 15326438 -0.10503308 0.0012053838 0.99446803 0.0026499978
1.1860238 -0.7364639 0.056863278 14010578 -0.15086596 0.0028419122 0.98855019 0.0021192369
1.2203225 -0.73813868 0.056836352 15392488 -0.11525424 0.0059998883 0.9933179 0.0037710774
1.0858293 -0.72432888 0.051671147 15458285 -0.13958095 0.024133431 0.98991656 0.00098150177
1.1079659 -0.72725981 0.055365115 15656175 -0.089569904 -0.0022967088 0.99597794 0.0018772371
1.1234741 -0.72469246 0.052092731 14142679 -0.12403114 -0.013246343 0.99218988 0.0013783309
1.1372391 -0.72525555 0.05097957 15063011 -0.063851707 0.025684586 0.99762887 0.0018468712
1.1423092 -0.72743988 0.056324437 15326955 -0.10879528 -0.0060023908 0.99404603 0.0017480941
1.1560545 -0.72511363 0.054684788 13944784 -0.10714588 -0.034818955 0.99363345 0.0013218008
1.1723702 -0.72374731 0.059215367 15787246 -0.16332339 0.03481013 0.98595828 0.0023711419
1.1916873 -0.72911841 0.056597024 13944784 -0.14506531 -0.0030201743 0.98941743 0.0020814841
1.2160327 -0.72566873 0.057425365 15523816 -0.11254738 0.031039124 0.9931615 0.0038958595
1.0862553 -0.71528053 0.051782221 15458283 -0.13937315 0.024361797 0.98994023 0.0010137263
1.1083996 -0.71805167 0.055478156 15787248 -0.081149988 0.0021434485 0.99669963 0.0019305586
1.1150901 -0.71266603 0.054467186 15195368 -0.11869871 0.0031476205 0.99292529 0.0020745369
1.1299443 -0.71067792 0.052477658 13681354 -0.099683404 -0.0031504855 0.99501419 0.00071554625
1.1358038 -0.71383417 0.058387667 15655662 -0.0655775 0.0073657096 0.99782032 0.0016954982
1.146234 -0.71264321 0.05602017 15195367 -0.10679432 0.0071674902 0.99425536 0.0019144467
1.15754 -0.71062011 0.056233108 13944784 -0.11960734 -0.035132285 0.99219948 0.0011343287
1.1699675 -0.71991438 0.054947272 15326438 -0.078308947 0.01346867 0.99683815 0.0014874473
1.1728261 -0.7140674 0.059334219 15786735 -0.14401746 0.051889863 0.98821372 0.0029079714
1.2117389 -0.71327502 0.058015421 15260645 -0.12425777 0.031991567 0.99173415 0.0042660455
1.0904564 -0.70844549 0.0508582 15392490 -0.14595878 0.02472725 0.9889816 0.0010735343
1.1155754 -0.7034198 0.054815069 15063782 -0.13482866 0.0098637464 0.99081981 0.0018635609
1.1261287 -0.70012051 0.053038895 14734560 -0.17442609 0.0045851995 0.98465961 0.0017759355
1.1312516 -0.70761263 0.051908031 15063266 -0.089005053 0.030755714 0.99555629 0.0030844207
1.1470659 -0.70115244 0.056839257 14931939 -0.11456371 -0.00010023267 0.99341595 0.0017474646
1.1624925 -0.70453525 0.056049369 14602714 -0.098098353 -0.0035940923 0.99517024 0.0018400426
1.1762464 -0.70524895 0.056379311 15063524 -0.075366959 0.013486717 0.99706471 0.0023490863
1.1993994 -0.70178497 0.058466017 14010061 -0.12756421 0.0020060167 0.99182832 0.0018885011
1.0910976 -0.69482732 0.051025391 15260647 -0.13869272 0.028155617 0.98993516 0.0015312509
1.1056885 -0.69481629 0.052210022 14471644 -0.11861399 0.0095468927 0.99289447 0.002054184
1.1278967 -0.696302 0.052421719 14996703 -0.098095089 0.020913238 0.99495733 0.0032731909
1.136055 -0.69399559 0.053247347 13746890 -0.119601 -0.01657892 0.99268365 0.00058272341
1.1454476 -0.69499356 0.0564854 15589610 -0.060823515 0.014043809 0.99804974 0.001463411
1.1641693 -0.69375062 0.056947291 13944268 -0.092624873 -0.0076727793 0.99567157 0.0013891179
1.1784906 -0.69724816 0.058392644 15524329 -0.14466888 0.035932824 0.98882747 0.0017467088
1.1801685 -0.69646192 0.053189218 15194852 -0.098280825 0.030905671 0.99467874 0.0035705124
1.2041924 -0.6915549 0.059001736 14602199 -0.11978244 0.016995035 0.99265468 0.0031748712
1.0917389 -0.68120915 0.051192552 15063266 -0.14087796 0.027937442 0.98963273 0.0019871425
1.1073059 -0.68101341 0.050348848 14602974 -0.11239488 0.016567858 0.99352551 0.0028628348
1.110134 -0.6812191 0.055930316 15458023 -0.098054498 0.026145907 0.99483752 0.0020159849
1.1229192 -0.68867469 0.054860175 14668767 -0.18356128 0.011027819 0.9829464 0.0018928994
1.1393709 -0.68072724 0.054214835 13746889 -0.11945182 -0.012949094 0.99275553 0.00063964387
1.1469946 -0.68471193 0.057551939 14866145 -0.087072484 0.017408634 0.99604982 0.0018173164
1.1688855 -0.68598461 0.056906581 13812682 -0.089080088 0.00053792453 0.99602431 0.0012738112
1.1784523 -0.68501467 0.059024885 15129315 -0.08561866 0.031518918 0.99582928 0.001259305
1.1806812 -0.68699086 0.05305934 15128289 -0.077497534 -0.019662384 0.99679863 0.002755288
1.2229726 -0.68918633 0.056165025 15194335 -0.12746993 0.0172267 0.9916929 0.0041833976
1.0921664 -0.67213035 0.051304013 15063265 -0.13340673 0.019442748 0.99087065 0.0020614795
1.1078373 -0.67182785 0.050926954 14471388 -0.11057863 0.023455821 0.99359059 0.0023704993
1.1157885 -0.67415422 0.052509636 14536663 -0.10715341 -0.00033165081 0.99424243 0.0013073443
1.1256011 -0.67578363 0.055121005 14405594 -0.17824166 0.04045197 0.98315489 0.0021168601
1.1332234 -0.67118943 0.051408514 14800094 -0.097786374 -0.0032681404 0.99520212 0.0033900714
1.1467528 -0.67257553 0.056416322 14602713 -0.10112118 0.012502312 0.99479562 0.0017021988
1.1698827 -0.67625439 0.057946056 13812680 -0.088884018 -0.011630305 0.99597412 0.00094500126
1.1763711 -0.6749543 0.053692296 15325667 -0.07908652 -0.020420881 0.99665862 0.0027239227
1.1835699 -0.67052621 0.059232205 14602972 -0.056841165 0.024380773 0.9980855 0.0016070794
1.2235026 -0.67939585 0.05603075 15260128 -0.12517031 0.020958733 0.99191386 0.003807097
1.092594 -0.66305155 0.051415473 15129059 -0.12778477 0.0072839693 0.99177521 0.0024857605
1.1138511 -0.66647518 0.050896764 14076113 -0.1106318 -0.0041382671 0.99385285 0.0013364879
1.1211834 -0.66130173 0.051127136 13615049 -0.11069886 -0.017363861 0.99370235 0.00076599512
1.1329767 -0.66541219 0.053847104 14405593 -0.17681877 0.060506493 0.98238182 0.0020224648
1.1452878 -0.6625182 0.05773361 14207698 -0.11804173 0.017660564 0.99285156 0.0014685262
1.1508082 -0.66380382 0.055920035 15392230 -0.082208574 0.012853654 0.99653226 0.0017285681
1.1755401 -0.66886634 0.057647347 13746887 -0.092724644 -0.012628534 0.99561173 0.00092526223
1.1858695 -0.66370732 0.056022584 13812680 -0.087465003 -0.021290943 0.99594003 0.00078556821
1.1935849 -0.66571653 0.056924254 14603227 -0.088850021 0.0015014336 0.99604392 0.0018852536
1.2192006 -0.66715419 0.056622908 15128542 -0.12257995 0.014842566 0.99234772 0.0032090959
1.1140678 -0.65324092 0.0531912 14866400 -0.079999313 0.0099827265 0.99674499 0.0023236868
1.1373482 -0.65395838 0.052237637 14668508 -0.13007207 0.040943496 0.99065882 0.0028458717
1.1469482 -0.65450698 0.055890918 13746887 -0.12236902 -0.024383746 0.99218512 0.0018470022
1.1571429 -0.6575399 0.055970505 14997471 -0.088890597 0.031789299 0.995534 0.0019254042
1.1643366 -0.65894973 0.05554764 15194081 -0.08635515 -0.019890726 0.99606586 0.0029045981
1.1839842 -0.65450519 0.058756631 14536662 -0.1048522 -0.0060566468 0.99446934 0.0015699404
1.2250926 -0.65002453 0.055627957 15062236 -0.10392579 -0.0057738475 0.99456835 0.0021302865
1.0972339 -0.64689404 0.050605953 15129056 -0.11939118 -0.0038454554 0.99283987 0.0022731456
1.122442 -0.64848953 0.053096861 14405077 -0.088198118 -0.0037804896 0.99609584 0.0017091555
1.1347023 -0.64387202 0.051033899 15062495 -0.14146543 -0.0018966887 0.98994142 0.0028951368
1.1421181 -0.64125246 0.053165823 14405593 -0.11609629 0.057623357 0.99156505 0.0028249847
1.1560138 -0.64710987 0.056278642 14667992 -0.11230367 -0.0032920849 0.99366844 0.0024149688
1.1678684 -0.64363831 0.055632353 14405848 -0.085464984 0.047115721 0.99522656 0.0028401979
1.1865997 -0.64280093 0.05953002 14010320 -0.090903081 -0.014518305 0.99575388 0.001468925
1.0956361 -0.63839895 0.050595582 13548995 -0.11132489 -0.030511327 0.99331564 0.00091913191
1.1002823 -0.63107324 0.050419033 13483202 -0.09677653 -0.018348843 0.99513698 0.001107121
1.1183915 -0.63953376 0.050418586 14668765 -0.084530085 0.011497483 0.99635464 0.0015638326
1.1232996 -0.63493222 0.053868342 14930906 -0.087194555 -0.019729061 0.99599594 0.0020786854
1.1351953 -0.63476622 0.050909027 15062495 -0.15200225 -0.00060539978 0.98838001 0.0039649475
1.1426628 -0.63183922 0.053758234 14405593 -0.10930303 0.025917627 0.99367052 0.0035930141
1.1523924 -0.63624591 0.056554809 14404819 -0.10348552 -0.020144256 0.99442697 0.0023768251
1.1630664 -0.63524014 0.056665227 14799579 -0.10642542 0.0043898202 0.99431103 0.0024856518
1.1888961 -0.63417768 0.05917719 13549510 -0.075224042 -0.04085999 0.99632919 0.0010357064
1.211108 -0.63322306 0.057677627 15128542 -0.078092374 -0.0010668373 0.9969455 0.0019653195
1.0655425 -0.62183475 0.050290853 14996702 -0.10788278 0.00083845487 0.99416327 0.0021202285
1.0884099 -0.62833649 0.053353518 15194080 -0.11343817 -0.009544923 0.99349922 0.0021556478
1.0906605 -0.62595904 0.050161988 14339542 -0.084765017 -0.0031233057 0.99639612 0.0017523817
1.1049348 -0.62368739 0.050248891 13483717 -0.087718889 -0.014432751 0.9960407 0.0012184345
1.1142424 -0.62784672 0.052565634 14537434 -0.082904696 -0.015371647 0.99643898 0.0020819961
1.1362077 -0.62421429 0.052416638 13483462 -0.13173862 -0.016649084 0.99114466 0.0032286211
1.1479106 -0.6247862 0.052826017 14405336 -0.11158922 -0.006692335 0.99373192 0.0029030514
1.1554854 -0.62785578 0.056518391 14273491 -0.11468095 -0.02570821 0.99306971 0.0026251427
1.1676679 -0.62303805 0.055937394 14668249 -0.088598028 -0.0056527699 0.99605149 0.0018184569
1.1958462 -0.62663627 0.05938378 14471126 -0.12597826 0.0026112273 0.99202961 0.0020748249
1.2077596 -0.62170744 0.058127746 15194335 -0.083527796 -0.0098223845 0.99645704 0.0012019431
1.0947316 -0.61765766 0.051972717 15129056 -0.11085588 0.0063367994 0.99381626 0.0021105146
1.1021718 -0.612638 0.05238843 13615303 -0.083732724 -0.021564282 0.99625492 0.0018769688
1.115871 -0.61863589 0.054433033 14931936 -0.089612015 -0.0028281442 0.99597275 0.0021176734
1.1221493 -0.61171317 0.054582864 15458023 -0.077782348 -0.0056723859 0.99695426 0.0013434399
1.1361547 -0.6128664 0.052268632 14272976 -0.13996378 -0.012898534 0.99007261 0.0040248372
1.1484575 -0.61533493 0.053420812 14536922 -0.10204101 -0.0078525469 0.99474919 0.0030413195
1.1519562 -0.61627948 0.058239058 14339026 -0.11768764 -0.02952739 0.99261165 0.0027088339
1.1681979 -0.61357725 0.056175083 14734043 -0.07857196 0.00086574355 0.99690813 0.0017580974
1.1821517 -0.61950392 0.059347034 15260642 -0.13186897 -0.034110729 0.9906801 0.0024066812
1.2046642 -0.61393732 0.058283214 14602456 -0.1176061 0.0055344012 0.99304491 0.0024230161
1.0966614 -0.60656226 0.051091045 14866143 -0.10650035 0.016161442 0.99418133 0.0022082699
1.1031165 -0.60342032 0.053373158 13615303 -0.083408117 -0.039095975 0.99574828 0.0017914944
1.1253362 -0.60431415 0.052599236 14997216 -0.09061528 -0.00074130972 0.99588573 0.0025774748
1.1451085 -0.60337877 0.057170898 14865629 -0.10666906 -0.010883105 0.99423504 0.0027960069
1.1555815 -0.60844207 0.059912026 13483717 -0.1297268 -0.012133808 0.99147558 0.0031840408
1.1666398 -0.60301137 0.056507446 14273232 -0.098275453 0.0051006349 0.99514621 0.0027358064
1.1700875 -0.6052869 0.058045983 14405336 -0.084184885 -0.016242132 0.99631786 0.0015782054
1.1826092 -0.60978585 0.059466332 15260642 -0.12895538 -0.021048896 0.991427 0.0023778465
1.2126795 -0.60419399 0.057279527 14865370 -0.08081609 -0.039666146 0.99593943 0.00076165679
1.0981529 -0.59191251 0.051222265 14668507 -0.11010903 0.0047141579 0.99390835 0.0019846265
1.1159307 -0.59319741 0.053157687 14075855 -0.091780767 -0.026093412 0.99543726 0.0017762546
1.1226182 -0.595281 0.052924957 14865373 -0.10295553 -0.0036708855 0.99467921 0.0044397754
1.1363034 -0.59947652 0.05564028 13548995 -0.1223013 -0.0051024556 0.99247992 0.0044456916
1.1433885 -0.59315872 0.055695489 14010317 -0.14231259 -0.018904917 0.98964125 0.0031922206
1.1501323 -0.59551126 0.057706654 15260642 -0.097485758 -0.043336283 0.99429297 0.0025639283
1.1673876 -0.59351319 0.056959547 14272720 -0.096273966 -0.0082271369 0.99532092 0.0024007421
1.1753683 -0.59791052 0.057169467 14339543 -0.070874549 -0.017980414 0.99732322 0.0015547351
1.2132033 -0.59451759 0.057146832 14996954 -0.11092126 -0.020568985 0.99361628 0.0015329863
1.0821825 -0.58388186 0.05160147 13351618 -0.14143403 -0.015769832 0.98982209 0.0034119904
1.1247835 -0.58479828 0.052613568 14273747 -0.10201918 -0.026789533 0.9944216 0.0028288926
1.1360068 -0.5848639 0.0503745 14602457 -0.10914987 -0.016929904 0.99388111 0.003943434
1.1506621 -0.58646119 0.055605251 14339026 -0.1227237 -0.033530977 0.99187428 0.0029240258
1.1759253 -0.58828461 0.057775289 14273750 -0.068743378 -0.039978396 0.99683309 0.0014034854
1.1839821 -0.58063179 0.059824228 15062495 -0.14289109 -0.025426306 0.98941177 0.003694789
1.2098484 -0.58312374 0.057598606 14931163 -0.095566615 -0.033142921 0.99487114 0.00059374125
1.2119639 -0.58366781 0.058433175 14274262 -0.14091332 -0.024709819 0.98971355 0.0029533724
1.0868232 -0.57652986 0.051398069 13417411 -0.088108391 -0.0081691816 0.99607742 0.0024829113
1.0985537 -0.57768136 0.051959515 14997472 -0.13413917 -0.019517493 0.99077028 0.0015603821
1.1271229 -0.57551825 0.053065442 15062494 -0.13096699 -0.011372044 0.9913215 0.0031135988
1.1367705 -0.57108182 0.050543927 14536664 -0.12491504 -0.0079716044 0.99213541 0.0035712221
1.1469388 -0.57460946 0.057668999 14272978 -0.1223731 -0.038406786 0.99174076 0.0024063354
1.1528049 -0.57365745 0.055493385 14274005 -0.12556931 -0.030835163 0.99160558 0.0033529697
1.1608837 -0.57608372 0.055688068 14930650 -0.1018817 0.009965932 0.99474663 0.0021650244
1.1750247 -0.57737345 0.059187308 13681353 -0.085621975 -0.027922165 0.99593639 0.001848344
1.1844398 -0.57091373 0.059943527 14931163 -0.13236892 -0.018204682 0.99103332 0.0039097681
1.0877548 -0.56744027 0.052369088 13285825 -0.12649769 -0.0024788158 0.99196386 0.0034624701
1.0972967 -0.56318498 0.052641422 15063265 -0.13491069 -0.035275046 0.99022967 0.0014940312
1.1027589 -0.56652796 0.051297694 14338772 -0.075982399 -0.032404531 0.99658251 0.0022258314
1.1195298 -0.56523335 0.055260018 14272978 -0.11922521 -0.031101197 0.99237996 0.0023722737
1.1448535 -0.56366444 0.058304101 13286338 -0.15289767 -0.02546142 0.98791403 0.0019912841
1.1616366 -0.5621739 0.055497304 14930650 -0.11606476 0.0080966502 0.99320865 0.0019470436
1.177676 -0.56849468 0.059474573 13746890 -0.088348031 -0.033243299 0.99553478 0.0015299524
1.2038398 -0.56572151 0.058424003 14865114 -0.093930922 -0.038310055 0.9948414 0.00054183666
1.0924047 -0.55999768 0.052175462 13351618 -0.096587986 0.018292665 0.99515635 0.0035670015
1.1024997 -0.55595946 0.05120419 13681097 -0.075383388 -0.0024787774 0.99715155 0.0023128428
1.1281426 -0.5574075 0.053747579 13615305 -0.10981566 -0.036523178 0.99328077 0.0022514823
1.1495692 -0.55573976 0.058221161 13286338 -0.15124229 -0.028706551 0.98807979 0.00183476
1.1539004 -0.55472457 0.056684881 14142162 -0.1309727 -0.027567102 0.99100268 0.0023640301
1.1621387 -0.55290079 0.055370137 14799323 -0.12874897 -0.00088432431 0.99167687 0.0023439771
1.2026765 -0.55052698 0.058519647 14864857 -0.10159642 -0.031824026 0.99431658 0.00084851374
1.080258 -0.54759514 0.050200492 14076881 -0.12927213 0.0082079768 0.99157518 0.0014183397
1.0941379 -0.54788625 0.05383715 14865886 -0.14187776 -0.029331654 0.9894495 0.0011712249
1.1073464 -0.54590631 0.051099669 13747403 -0.098610178 0.0023601346 0.99512333 0.0016241437
1.1238693 -0.54900992 0.055789471 14536663 -0.12374799 -0.033751525 0.99173951 0.0019025081
1.1327785 -0.54350883 0.052913144 13944269 -0.11956142 -0.0061709592 0.99280769 0.0021359541
1.1535778 -0.54378033 0.058107421 13483974 -0.12158249 0.0068740044 0.99255753 0.001671592
1.1825016 -0.5417425 0.059631854 14010577 -0.097167373 0.00074073672 0.99526781 0.0011096793
1.0735118 -0.53484231 0.050321043 14865370 -0.13837993 -0.0077580148 0.99034882 0.001006508
1.0947771 -0.53431374 0.054003775 14734300 -0.13546292 -0.011374095 0.99071717 0.00096814701
1.1035959 -0.53614074 0.052499354 13023164 -0.10474974 0.014337227 0.99439526 0.0026364205
1.1123787 -0.5333097 0.051073104 13945297 -0.10349262 0.0011673942 0.99462962 0.00077995245
1.1256441 -0.53749996 0.055493921 15128288 -0.14960803 -0.00029817226 0.98874539 0.0017863124
1.1344219 -0.53385025 0.054619621 13286081 -0.12272804 0.00049283518 0.99244028 0.0014560329
1.1480372 -0.53669518 0.059614033 14930650 -0.086799808 -0.0098412633 0.9961772 0.0022017169
1.1572191 -0.53425378 0.057450529 13878219 -0.13165805 0.012007724 0.99122244 0.0016869041
1.1983382 -0.53895485 0.059120968 14864857 -0.098233774 -0.020444799 0.99495333 0.00089857884
1.0739307 -0.5259462 0.050430238 14667737 -0.13785987 -0.017066078 0.99030471 0.0011223283
1.0952032 -0.5252654 0.054114848 14799323 -0.12939724 -0.010022144 0.99154222 0.00090420857
1.1045375 -0.52695328 0.053480834 13154752 -0.1202836 -0.014094957 0.99263954 0.002392347
1.1129102 -0.52412409 0.05165121 13879504 -0.10971788 -0.0033546314 0.99395716 0.00059174333
1.1255943 -0.5280984 0.053863734 14799065 -0.12439049 0.0041000056 0.99222487 0.0023211394
1.1372457 -0.52301461 0.053339329 13746890 -0.10976013 -0.0041612126 0.99394941 0.0015913622
1.1574475 -0.52570081 0.059041664 13286340 -0.11692864 0.014381355 0.99303621 0.0018275209
1.1647249 -0.52379453 0.057111189 13812168 -0.13488834 0.001968344 0.99085885 0.0021640698
1.1939958 -0.52745879 0.059723333 14930650 -0.10504992 -0.010715795 0.99440926 0.00084006775
1.0994344 -0.51779103 0.053198665 14930652 -0.12089907 0.0010343046 0.99266428 0.0009198552
1.1126306 -0.51286602 0.052875862 13417925 -0.11690573 -0.024703536 0.99283576 0.0012218368
1.1217519 -0.51701653 0.056967974 14930650 -0.13789985 0.017386848 0.99029356 0.0023823851
1.1381418 -0.51502293 0.054584563 13813198 -0.10087797 -0.0070526302 0.99487388 0.0008218853
1.1655087 -0.51608682 0.055757701 14207440 -0.14159139 0.0028334444 0.98992115 0.0012953369
1.1723017 -0.51485878 0.058173031 13022651 -0.11847453 0.0045255497 0.99294674 0.0023485525
1.1889235 -0.51464379 0.059996575 13878989 -0.10999179 0.0036739707 0.99392575 0.0020012851
1.1932414 -0.51619041 0.059541009 14799320 -0.12842938 -0.017464876 0.99156487 0.0020138607
1.0747685 -0.50815392 0.050648659 14799064 -0.13154364 -0.0085148429 0.99127382 0.0013240448
1.0940362 -0.50575519 0.051376671 13812939 -0.12987004 -0.012074884 0.99145752 0.0014134193
1.1148425 -0.50226259 0.054140985 13088444 -0.12898348 -0.019273318 0.99145949 0.0019593819
1.1247892 -0.50408566 0.056515396 14865370 -0.16028599 0.0038012671 0.98706329 0.0030039926
1.1365073 -0.50491166 0.052814312 14207440 -0.10134134 -0.016209988 0.99471968 0.0012122877
1.145383 -0.50934029 0.055390686 12891065 -0.10957814 -0.0043468405 0.99396873 0.0024809649
1.1640928 -0.50590765 0.05630213 14076111 -0.13746205 -0.022828896 0.99024391 0.0019432281
1.173292 -0.50519645 0.059205234 12956858 -0.11600468 0.021841222 0.99300855 0.0028529908
1.0751874 -0.49925783 0.050757885 14799064 -0.12489614 -0.016980764 0.99202448 0.0011576273
1.0965668 -0.49497309 0.050168216 12956858 -0.15012126 -0.02030579 0.98845911 0.0017782015
1.1005031 -0.49509409 0.053477302 14733529 -0.10065125 0.0076525966 0.99489236 0.0011923232
1.1151475 -0.49479115 0.054257199 13418181 -0.10868791 -0.027461877 0.99369657 0.0015674611
1.1354346 -0.49444374 0.055414602 14273233 -0.12706453 -0.0047004884 0.99188334 0.0017806489
1.1491841 -0.4960067 0.056215614 12825272 -0.092377111 0.012550376 0.99564499 0.0029864679
1.1669861 -0.49742573 0.055792503 14207441 -0.14262474 -0.027512949 0.98939437 0.0015402781
1.1916468 -0.49748057 0.059920251 14667991 -0.11638696 -0.012446367 0.99312598 0.00097685389
1.0718048 -0.48884928 0.051923364 14667991 -0.11514329 -0.027778437 0.99296045 0.00097213249
1.0963197 -0.48762023 0.050724268 13351618 -0.14417772 -0.031981315 0.98903489 0.00092933781
1.1011444 -0.48147589 0.053644478 14601944 -0.085304491 0.0060247895 0.99633676 0.00071011565
1.1150361 -0.48738196 0.053963572 13813711 -0.10300706 -0.023158016 0.99441099 0.0010534911
1.1248429 -0.48366332 0.055437192 13812168 -0.13978168 -0.010935022 0.9901219 0.0019656587
1.1419245 -0.48300421 0.056035072 13615817 -0.10471025 -0.041524328 0.99363554 0.0022362813
1.1554073 -0.48626921 0.055998467 13877705 -0.12807186 -0.015506727 0.99164367 0.0021034642
1.1693745 -0.48803231 0.057579368 13878991 -0.12000602 -0.047519956 0.99163526 0.0017715846
1.1960534 -0.48945317 0.05920212 14733271 -0.11947335 -0.012671729 0.99275655 0.00090978597
1.0722222 -0.47998357 0.052032202 14602198 -0.11609011 -0.0090736384 0.99319726 0.0010324809
1.0802488 -0.47402093 0.050029933 14535892 -0.10189363 0.0058013257 0.99477845 0.0010001353
1.0940483 -0.47505921 0.051800773 13616076 -0.13929996 -0.024528341 0.98994642 0.001058666
1.1018733 -0.47525132 0.052353874 13811657 -0.11758763 -0.013648742 0.99296874 0.00066725805
1.1155676 -0.47819644 0.054541677 13747403 -0.10266063 -0.032474451 0.99418622 0.0013189389
1.1255372 -0.47438228 0.055990115 13680839 -0.13274314 -0.011161344 0.99108768 0.00174678
1.1319133 -0.47554347 0.050731882 14666708 -0.094076112 -0.035797685 0.99492121 0.0018050803
1.1548893 -0.47834796 0.057142913 12891065 -0.094229192 -0.015272841 0.99543339 0.0029331562
1.1636041 -0.47512051 0.056828428 13746633 -0.13394611 -0.030026365 0.99053365 0.0022370585
1.0730573 -0.46225214 0.052249879 14535892 -0.10159822 -0.011300119 0.99476135 0.0013364539
1.102023 -0.46401194 0.051579177 13154752 -0.14324924 -0.025969846 0.98934585 0.0012182543
1.116099 -0.46901089 0.055119753 13681612 -0.095336795 -0.036280155 0.99478376 0.0014007342
1.1274589 -0.4648931 0.054027364 13878476 -0.10752949 -0.024110751 0.99390954 0.0018238656
1.1448982 -0.46496871 0.056605518 13615817 -0.10406344 -0.039474007 0.99378699 0.0023275064
1.1578975 -0.46626189 0.05561845 14601685 -0.1498251 -0.0099040484 0.98866296 0.0019562205
1.1653149 -0.46214235 0.056716055 12890549 -0.095858648 -0.0082262009 0.99536103 0.0030823741
1.193185 -0.46906769 0.059530601 14535892 -0.10616567 -0.00555987 0.99433297 0.0017145372
1.0759459 -0.45457745 0.050716773 14141648 -0.13246334 -0.0067094592 0.99116522 0.0015951304
1.0820446 -0.4517509 0.050285697 12890551 -0.11737468 -0.012010151 0.99301505 0.00089492975
1.097234 -0.45316115 0.052585959 13550026 -0.13875224 -0.022806743 0.9900645 0.0020219306
1.1045544 -0.45505774 0.053647503 13680325 -0.11297438 -0.011992483 0.99352551 0.0012851757
1.1261796 -0.45497748 0.056032728 13615046 -0.10853946 -0.026607599 0.99373597 0.0016366881
1.1494954 -0.45223355 0.056277752 13812682 -0.11395898 -0.023132306 0.99321616 0.0022798802
1.1583958 -0.45705715 0.055492207 14732501 -0.13347025 -0.0064196368 0.99103206 0.0020739795
1.1625282 -0.45132661 0.058830649 12627893 -0.097148247 -0.022839183 0.99500787 0.0018482542
1.1939542 -0.45486122 0.059335783 14535891 -0.10961074 0.0024503672 0.99397153 0.0021279231
1.077701 -0.44588095 0.051413119 14601685 -0.10079632 -0.019331293 0.99471927 0.0013308406
1.082567 -0.44547892 0.050757028 13680582 -0.12807049 -0.0043315087 0.9917556 0.0017573576
1.106671 -0.44649121 0.053066075 14667480 -0.10346772 -0.023104578 0.99436444 0.0013001966
1.1141537 -0.44226217 0.055137843 13351615 -0.11661177 -0.008825168 0.99313837 0.0016501273
1.1279011 -0.44660798 0.055476114 14009033 -0.11071247 -0.0012130269 0.99385178 0.0016657189
1.1384044 -0.44303986 0.056018323 12693940 -0.09683954 -0.0057696109 0.99528331 0.0014319366
1.1462555 -0.44151142 0.058081806 13681610 -0.11062837 -0.013345451 0.99377227 0.002711857
1.1631489 -0.4454875 0.057298824 13745860 -0.11718356 -0.0087228445 0.99307191 0.0012960278
1.1947232 -0.44065475 0.05914095 14667478 -0.1095286 -0.0088532967 0.99394423 0.0024647992
1.0743097 -0.43565506 0.052576393 14666708 -0.10508278 -0.0048955716 0.9944514 0.0020011629
1.0876304 -0.43501496 0.051025599 12759733 -0.11112849 -0.0070247427 0.99378121 0.0011757646
1.0980201 -0.43957639 0.053440928 13615305 -0.15744224 -0.012740411 0.98744607 0.0012532145
1.103282 -0.43608201 0.054201722 14601687 -0.096423827 -0.024163701 0.99504703 0.0012792748
1.1115557 -0.43388265 0.054403126 12759733 -0.11452223 0.012874313 0.99333727 0.0011065422
1.1220077 -0.43386695 0.055787627 14207440 -0.099690013 -0.0074466411 0.99499065 0.0016727118
1.139366 -0.43365642 0.057020754 12890551 -0.10980222 -0.010504977 0.99389797 0.0011460958
1.1467984 -0.43212846 0.058672309 13615819 -0.10575283 -0.005825982 0.99437541 0.0020329938
1.1554945 -0.43732557 0.055860028 14535892 -0.12148294 -0.0092727803 0.99255019 0.0013697308
1.1682627 -0.43338153 0.059788525 12693170 -0.10241213 -0.048027523 0.99358201 0.0011337389
1.195236 -0.43118387 0.059011072 14601685 -0.12868144 -0.013840857 0.99158943 0.0023489953
1.0747272 -0.42678934 0.052685231 14600915 -0.10917392 -0.0024994109 0.99401951 0.001855045
1.0885551 -0.42599329 0.051989377 12824245 -0.095487237 -0.015245855 0.99531388 0.0013909186
1.098806 -0.42599165 0.054295868 13550026 -0.15638411 0.0087548196 0.98765755 0.0010127549
1.1037096 -0.42700326 0.054313183 14536405 -0.098851539 -0.031666614 0.99459821 0.0013596935
1.1238561 -0.42481828 0.054859929 13812168 -0.10665306 -0.003310319 0.99429083 0.0014613743
1.1440955 -0.42543754 0.056909978 12758965 -0.11054336 -0.0087925503 0.99383241 0.0011033958
1.1550945 -0.42570511 0.057863142 14206928 -0.11310786 1.352471e-05 0.99358267 0.0015764068
1.1691669 -0.42307636 0.053589746 14470099 -0.12219515 -0.0039664758 0.99249816 0.0010988546
1.1908672 -0.42017463 0.059620127 14470099 -0.1453657 -0.0075152088 0.98934948 0.0020276033
1.0751446 -0.41792363 0.052794069 14535892 -0.12844428 -0.012333322 0.99164003 0.0021797752
1.0983808 -0.41509733 0.050795466 12627637 -0.094506688 -0.021534748 0.99529129 0.0013435381
1.1064591 -0.4160161 0.053197592 13812684 -0.12878934 -0.0025823002 0.99166864 0.0013527162
1.1237708 -0.41578922 0.054221556 13614789 -0.10590991 -0.0066855825 0.99435323 0.0014297044
1.1450604 -0.41602397 0.057915628 12693172 -0.12030222 -0.014252797 0.99263501 0.0014811336
1.1551416 -0.41503805 0.059281975 14075084 -0.10448614 -0.0057927845 0.99450952 0.00139611
1.1608874 -0.41103366 0.054861054 14404306 -0.12161681 -0.0030300226 0.99257249 0.0011845666
1.0688741 -0.40544733 0.050714523 12758711 -0.1044176 -0.014329258 0.9944303 0.0024009719
1.0755621 -0.409058 0.052902907 14470101 -0.11681996 -0.00727838 0.99312645 0.0024941387
1.0849499 -0.40791407 0.050625294 13549513 -0.14909056 -0.0044588968 0.98881352 0.0010581246
1.0997782 -0.40146306 0.052251995 12693940 -0.097890034 -0.030825458 0.99471974 0.0017573036
1.1067092 -0.40519845 0.053850919 13944013 -0.11672416 0.0006925746 0.99316412 0.0016452223
1.1251138 -0.40801385 0.055729538 13088445 -0.11330933 -0.0090539493 0.99351847 0.001439939
1.1317598 -0.40762705 0.057088226 14535892 -0.097790562 -0.02235925 0.99495584 0.0016800301
1.1460252 -0.4066104 0.058921278 12758965 -0.1285262 -0.025527813 0.99137753 0.0011801186
1.1569581 -0.40665141 0.057734877 13483717 -0.093173325 0.013888977 0.99555302 0.00088810112
1.1613857 -0.40182891 0.054734811 14469329 -0.11479804 -0.010560866 0.99333274 0.0015744631
1.1879801 -0.400139 0.059953377 14469329 -0.14539379 0.00013400614 0.98937386 0.001754599
1.0760412 -0.39480591 0.051739261 13548739 -0.11462232 -0.024850771 0.99309826 0.0028535668
1.085728 -0.39446598 0.051471651 13549256 -0.14650992 -0.013682779 0.98911458 0.00086504401
1.1037534 -0.39446285 0.054210979 13483203 -0.10568766 -0.0053648963 0.99438488 0.0014279824
1.1163144 -0.39727128 0.053002521 14338515 -0.10066811 -0.014602618 0.99481291 0.001872996
1.1267415 -0.3963165 0.056219578 12890808 -0.11347683 -0.022571795 0.99328417 0.0016312065
1.1360281 -0.39949885 0.056209952 14404306 -0.10089168 -0.02254604 0.99464196 0.001685034
1.1469901 -0.3971968 0.059926867 12890038 -0.12023409 -0.0017862096 0.99274397 0.0012476845
1.1573051 -0.39231476 0.058778316 13483460 -0.10292146 0.0077870418 0.99465901 0.00090356672
1.161884 -0.39262423 0.054608583 14469329 -0.11457509 -0.010160937 0.99336267 0.0015681832
1.1923991 -0.39187583 0.059232041 14535122 -0.14516777 -0.041158922 0.9885506 0.0016456121
1.0526541 -0.38436669 0.050658464 14338513 -0.11150759 -0.011833822 0.99369317 0.0025037588
1.0791054 -0.38098937 0.051172227 12692917 -0.12441793 0.00067690015 0.9922297 0.0021879803
1.0853496 -0.38512787 0.051580817 13944012 -0.13062449 -0.0111912 0.99136877 0.0015936965
1.0978248 -0.38530517 0.056079447 13614278 -0.10193333 -0.020649007 0.99457693 0.0019537983
1.1069733 -0.38326696 0.054797336 14075342 -0.11721222 -0.013778952 0.9930113 0.0015588239
1.1287401 -0.38655755 0.055637147 14140877 -0.097376391 -0.013745749 0.99515265 0.0013422836
1.1334743 -0.38199359 0.056200221 13022650 -0.088574693 -0.0026993793 0.99606591 0.0013900714
1.1564721 -0.38102221 0.057461739 13548225 -0.12383589 0.0015662193 0.99230146 0.0017203516
1.188998 -0.38133404 0.059695497 14535122 -0.14942887 -0.021578226 0.98853701 0.0016056681
1.0530634 -0.37567601 0.050765127 14404306 -0.11856736 -0.036189459 0.99228632 0.0022280395
1.0848727 -0.3758285 0.051235348 14404308 -0.12369551 -0.020770574 0.99210286 0.0028932018
1.0905249 -0.37768495 0.051313519 13417924 -0.13044137 -0.019193828 0.9912703 0.00051500375
1.1044238 -0.37336254 0.05507347 13548227 -0.10617644 -0.029917076 0.9938972 0.0018189237
1.1125891 -0.3701601 0.054548383 13549255 -0.1212005 -0.0077499785 0.99259782 0.00085333391
1.1249683 -0.37513089 0.055326946 14403536 -0.097636528 -0.021531479 0.99498922 0.0016494828
1.1342204 -0.37269366 0.056989968 12759735 -0.085358702 -0.0040787458 0.99634194 0.0013863241
1.162766 -0.37589639 0.058718264 12956346 -0.1251573 0.0010127648 0.99213642 0.0014500689
1.189507 -0.37193149 0.059566543 14469331 -0.14661723 -0.020484442 0.98898119 0.0015511106
1.0594039 -0.36128876 0.050043821 12365234 -0.072171248 -0.042724725 0.99647677 0.0018198271
1.0776496 -0.36472949 0.053447068 14535124 -0.11947812 -0.016101735 0.99270624 0.0022484402
1.0884523 -0.36516118 0.050708041 12627379 -0.14599088 -0.018553261 0.98911196 0.0020441536
1.0910454 -0.36868921 0.051879674 13483463 -0.12410564 -0.019546488 0.99207652 0.00050555903
1.1069871 -0.36478135 0.055037007 13482433 -0.10420641 -0.026637957 0.99419892 0.0018601227
1.1182334 -0.36182177 0.052516386 14535122 -0.10064901 -0.0069769989 0.99489754 0.0018583789
1.1287127 -0.36919907 0.058782578 14403536 -0.10205203 -0.032325681 0.99425375 0.0014307826
1.1387491 -0.36441535 0.05660595 12890808 -0.092431076 -0.013271053 0.99563068 0.0015869674
1.1484663 -0.36550245 0.056630701 14337745 -0.0889249 0.011937822 0.99596679 0.0015459092
1.1632185 -0.36517155 0.059216172 13351877 -0.10547061 -0.028801834 0.99400526 0.0010255689
1.0780671 -0.35586378 0.053555876 14469331 -0.11673699 -0.0066311792 0.99314076 0.0026536721
1.0898347 -0.35167387 0.052148879 12561586 -0.13212633 -0.044256717 0.99024445 0.002526463
1.0937083 -0.35572487 0.052088439 13417670 -0.10419167 -0.024960179 0.99424398 0.0009004951
1.1153202 -0.35597157 0.053993974 13548482 -0.099727623 -0.012250126 0.99493933 0.0015971226
1.1293652 -0.35534117 0.058952689 14403536 -0.11473915 -0.021374449 0.99316573 0.00099907478
1.1391116 -0.35398975 0.05743888 13351618 -0.10090443 -0.021765366 0.99465805 0.0011799559
1.1446104 -0.35736758 0.055957884 12495278 -0.093626142 -0.031084359 0.99512208 0.0019983563
1.1599644 -0.3547571 0.054727688 14206927 -0.10699725 -0.022389339 0.99400723 0.0016667079
1.1883131 -0.3573038 0.059669942 14338514 -0.16759294 -0.011290078 0.98579162 0.0020927661
1.0585186 -0.34193802 0.050111771 14207440 -0.11710954 -0.011897252 0.99304771 0.0025983944
1.06996 -0.34469673 0.051208228 13418440 -0.13284504 -0.04049515 0.99030924 0.0015230021
1.0743794 -0.34343734 0.052979313 14469329 -0.11271174 -0.02045547 0.99341714 0.0028301147
1.0916815 -0.34219214 0.053343758 12825274 -0.10342389 -0.040659614 0.99380594 0.0015970076
1.1063266 -0.34834725 0.056604996 13482435 -0.10013364 -0.027296664 0.99459952 0.0018900874
