# .PCD v0.7 - Point Cloud Data file format
VERSION 0.7
FIELDS x y z rgb normal_x normal_y normal_z curvature
SIZE 4 4 4 4 4 4 4 4
TYPE F F F U F F F F
COUNT 1 1 1 1 1 1 1 1
WIDTH 534
HEIGHT 1
VIEWPOINT 0 0 0 1 0 0 0
POINTS 534
DATA ascii
1.7235999 -1.0425943 0.15310681 12366774 -0.60617137 0.49567872 0.62197983 0.026571654
1.7071924 -1.0352447 0.15824416 11510695 -0.54977018 0.49780264 0.67077959 0.033436991
2.1223929 -1.0388467 0.1513322 13878212 -0.14013325 -0.026546108 0.98977673 0.0016093655
2.1736698 -1.0338842 0.15682271 13681860 -0.12482402 -0.00062484294 0.99217874 0.0018961972
1.7167494 -1.0261858 0.15755548 10985640 -0.58252025 0.43277618 0.68802261 0.043111473
1.7246687 -1.0285064 0.15447259 11643316 -0.70919156 0.42398596 0.56327903 0.023931656
2.1896782 -1.022752 0.1565668 13681860 -0.10957013 -0.0023278221 0.99397635 0.0022495973
1.7176468 -1.0122523 0.15786166 10788260 -0.60669959 0.44287893 0.66013175 0.029832605
1.7257376 -1.0144184 0.15583837 11116972 -0.76707619 0.2756778 0.57930642 0.026423583
1.7461454 -1.0104113 0.15400115 10722981 -0.79000235 0.22156078 0.57167041 0.028396394
2.2057033 -1.0113931 0.15633285 13550274 -0.12109883 -0.025035664 0.99232477 0.0017356985
1.7281808 -1.0035069 0.15706742 10524572 -0.6667468 0.4025169 0.62723917 0.041395705
2.0962391 -1.0049336 0.15226406 14141387 -0.13309556 -0.031991266 0.99058676 0.002347819
1.7381375 -0.9929083 0.15662611 10261656 -0.81384021 0.18810122 0.54980189 0.030206434
2.096421 -0.99242514 0.15477341 13878471 -0.13593018 -0.028667253 0.99030358 0.0018330921
1.7396318 -0.98052377 0.15658605 9997452 -0.77664375 0.33784634 0.5316807 0.027861787
2.112076 -0.98194736 0.15375139 14141643 -0.14314406 -0.016466388 0.9895649 0.0018507427
2.1923308 -0.98778546 0.15995663 13681346 -0.1405368 -0.018140221 0.98990929 0.0018635797
1.738625 -0.97704375 0.1583488 9933201 -0.77682692 0.13528949 0.61500949 0.040016886
2.070065 -0.97181296 0.15571657 14536655 -0.095558017 0.0068250895 0.99540049 0.0024301356
1.7449627 -0.96706605 0.15751901 9800842 -0.79292333 0.28319091 0.53951418 0.037487771
2.0996885 -0.96703756 0.1533829 14471378 -0.11813932 0.0094777429 0.99295181 0.0026295884
1.7507846 -0.95534563 0.15781713 9865354 -0.73253524 0.45022675 0.51057619 0.041488286
2.0985832 -0.95885706 0.15551105 13944264 -0.15444334 -0.0056683314 0.98798537 0.00190873
2.114665 -0.95582557 0.15311977 14602194 -0.12163094 0.038993735 0.99180913 0.0021726941
2.0996642 -0.94207305 0.15587988 14075593 -0.15302797 -0.014324014 0.98811805 0.001972402
2.1306372 -0.94479412 0.15274271 14537169 -0.12348963 0.036483895 0.99167496 0.0025638612
1.7199564 -0.93721664 0.15000585 9997456 -0.69083828 0.31720713 0.64970934 0.064181402
1.7423536 -0.93826729 0.15751466 9339777 -0.59023792 0.58380514 0.55748606 0.034438491
2.1456466 -0.93315101 0.15252137 14274512 -0.1385736 0.028731093 0.98993528 0.0015610873
1.7291869 -0.92823756 0.15042374 9406857 -0.70064032 0.23080568 0.67515326 0.055462386
2.1007454 -0.92528898 0.15624872 13944005 -0.1351748 -0.0247692 0.99051213 0.0024686833
2.1616526 -0.92167342 0.15218756 14208717 -0.14435647 0.023778239 0.98924005 0.0016545677
2.1311548 -0.90281093 0.15432164 13484483 -0.13232113 -0.024705708 0.99089897 0.0021209551
2.1482468 -0.89888012 0.15584379 14011338 -0.14294231 0.013040304 0.98964518 0.0016564542
2.1322501 -0.88580644 0.1546953 13484483 -0.13052194 -0.022089556 0.99119937 0.0025320982
2.1642699 -0.88717574 0.15553197 13945034 -0.14843318 0.022644296 0.9886632 0.0013454127
2.1333454 -0.86880201 0.15506899 13483967 -0.10922729 -0.013030126 0.99393141 0.0028217337
2.1655784 -0.86992687 0.15720418 13879243 -0.13567479 -0.0051658154 0.99074 0.0014143881
2.1668873 -0.85267806 0.15887639 13813448 -0.1296221 -0.0076544215 0.99153394 0.0016503887
2.0898104 -0.8421675 0.1505394 12958141 -0.099084899 -0.025564946 0.99475056 0.0010538922
2.1839275 -0.84085935 0.15847921 13812932 -0.13774678 0.0035069957 0.99046129 0.0014209889
2.0910773 -0.82547069 0.15215814 13286336 -0.097909257 -0.02441778 0.99489576 0.0011298178
2.1070652 -0.81385171 0.15172669 13812680 -0.10998793 -0.034246154 0.99334276 0.0010463578
2.2013292 -0.81098336 0.1599291 13811651 -0.15004459 -0.028337568 0.98827308 0.001369009
2.0127585 -0.80710459 0.15067241 12695480 -0.15776123 -0.0071698166 0.98745131 0.0042182938
2.122088 -0.80167484 0.15145308 13681864 -0.11905245 -0.032642961 0.99235123 0.00089738209
2.0137935 -0.79103506 0.15102553 12628922 -0.15361106 -0.013099179 0.98804456 0.0042819623
2.1093938 -0.79101676 0.15919939 13220281 -0.10950606 -0.010823289 0.99392724 0.0023462148
2.1096158 -0.78023124 0.15498605 13157312 -0.11794834 -0.037142396 0.99232495 0.0012686057
2.1534846 -0.78871769 0.15557659 13088955 -0.11342196 -0.019999035 0.99334562 0.0021743365
1.9961911 -0.77515167 0.15110168 12892605 -0.12446398 -0.0079501644 0.99219233 0.0051608454
2.1246548 -0.76784265 0.154733 13550535 -0.10795464 -0.033836003 0.99357986 0.0011808858
2.1259384 -0.75092649 0.15637296 10850716 -0.12439796 -0.03967857 0.99143875 0.0026752255
2.1272216 -0.73401046 0.15801293 13549249 -0.12544635 -0.030929372 0.99161816 0.0030145412
2.0316784 -0.7147668 0.1515177 12364456 -0.12049958 0.014853567 0.99260223 0.0021377194
2.0543237 -0.71111441 0.15141165 12825524 -0.12829764 -0.041252524 0.99087739 0.0021932346
2.1294906 -0.71157855 0.15969279 12759733 -0.10075403 -0.0017674902 0.99490982 0.00091203698
2.1445699 -0.70446211 0.15931961 13352127 -0.12383807 -0.015173316 0.99218643 0.0030225378
2.0693293 -0.69881988 0.15104556 12562613 -0.15612984 -0.060916189 0.98585635 0.0015506576
2.1596661 -0.69132501 0.15913922 13286336 -0.11220523 0.010664769 0.99362785 0.0043781786
2.0705805 -0.68232721 0.15264446 12825783 -0.16439545 -0.068191975 0.9840346 0.0016382427
2.175765 -0.67824656 0.15884918 13286334 -0.11947593 0.0039858222 0.99282908 0.0048318966
2.0846257 -0.66943789 0.15244731 12629172 -0.1446721 -0.063406192 0.98744607 0.0021333918
2.0730829 -0.64934194 0.15584224 12957369 -0.17205693 -0.038157288 0.98434776 0.0019898389
2.1475837 -0.64774376 0.1599268 12628147 -0.087351009 -0.017671281 0.99602085 0.00044800059
2.0743341 -0.63284934 0.15744114 13153723 -0.14556578 -0.020354368 0.9891392 0.0026094734
2.1213713 -0.6324982 0.15961275 12101031 -0.11622575 -0.044481069 0.9922263 0.0015349131
2.2103276 -0.6341812 0.15990147 13023162 -0.11706059 -0.0012643859 0.99312401 0.0050175856
2.0755858 -0.61635661 0.15904003 13220284 -0.14435644 -0.0074940696 0.98949742 0.0030163841
2.0389683 -0.60158855 0.15400483 12101031 -0.13169551 -0.010153515 0.99123824 0.0012319566
2.032444 -0.58791697 0.15046921 12364972 -0.16917862 0.006532535 0.98556376 0.0029273794
2.0527704 -0.58870888 0.15310402 12166824 -0.13383642 0.0033888272 0.99099761 0.0014014443
2.1047382 -0.58983433 0.15860653 13023162 -0.1326787 0.014017671 0.99105996 0.0018073432
1.9689983 -0.57443583 0.15092348 12034978 -0.11806751 -0.013064638 0.99291962 0.0015088746
2.0464787 -0.574835 0.1501942 12496558 -0.16092841 0.039161906 0.98618889 0.0019050661
2.0538182 -0.57244176 0.1534615 12232872 -0.13233769 0.0074619949 0.99117666 0.0017359121
2.1208186 -0.57661456 0.15821889 12825783 -0.14217025 0.025828563 0.98950523 0.001437564
2.008214 -0.55238861 0.15006517 11969698 -0.13031635 -0.016440867 0.99133617 0.0022368173
2.0548658 -0.55617458 0.15381898 12363946 -0.12876514 0.035480805 0.99104023 0.0011938002
2.0657256 -0.54415011 0.15215635 12364460 -0.14139089 0.036601849 0.98927701 0.0010881969
2.0778174 -0.53203547 0.15101954 12299692 -0.13698733 0.014315352 0.9904694 0.0017521849
2.0697474 -0.52653372 0.15328652 12429996 -0.1378939 0.040998384 0.98959816 0.00083057885
1.9866277 -0.51498502 0.15219681 12100774 -0.1349473 -0.020983273 0.99063057 0.0020307121
2.074935 -0.51285529 0.1531323 12299180 -0.136457 0.014674853 0.99053735 0.0015870223
1.9880964 -0.49934268 0.15266091 12232360 -0.12950064 -0.029637201 0.99113637 0.0016880446
2.0829797 -0.49787751 0.15344223 12298668 -0.12309711 -0.0059791273 0.99237663 0.0020886327
2.0141599 -0.48906067 0.15194404 12232617 -0.14384256 -0.028314933 0.98919541 0.0016658793
2.0815716 -0.48255756 0.15581623 12496561 -0.10316139 0.00054100901 0.99466449 0.0023026105
2.1004906 -0.48302913 0.15169276 12561582 -0.14081781 -0.027351491 0.98965764 0.0018299882
2.041244 -0.47860646 0.15119143 12101801 -0.10659423 -0.029106699 0.99387652 0.0019515721
1.9986054 -0.46531633 0.15138352 12957623 -0.10066148 -0.023146244 0.9946515 0.0017276539
2.0852919 -0.46491253 0.15540311 12693426 -0.11262344 -0.032214642 0.99311537 0.001924951
2.0126462 -0.45183018 0.15105116 13023416 -0.107825 -0.038365725 0.99342936 0.0012865855
2.1107979 -0.45437884 0.15534276 12891830 -0.12519096 0.010208085 0.99208021 0.0020245588
2.0888221 -0.44728774 0.15375309 12429998 -0.14360926 -0.053085241 0.98820966 0.0013634462
2.1269197 -0.44023886 0.15493304 12759733 -0.13197206 0.015252626 0.99113607 0.0015616702
1.9821397 -0.43447271 0.15507604 12036520 -0.11427638 -0.0070007686 0.99342436 0.0017533685
2.0138593 -0.43584409 0.15260094 12957623 -0.11119073 -0.03531995 0.99317127 0.0013051452
1.9954399 -0.42113039 0.15498137 12233386 -0.13158683 -0.018168611 0.99113816 0.0016704297
2.0632482 -0.42603752 0.15667877 12495789 -0.12247863 -0.060489163 0.9906261 0.0016127577
2.1281953 -0.42342862 0.15656269 12825524 -0.1072318 -0.005644225 0.99421805 0.0008899651
2.0150719 -0.41985813 0.15415072 12891317 -0.1069307 -0.019100768 0.99408299 0.0020211462
1.9850599 -0.40336978 0.15599883 12299180 -0.11596857 -0.028175052 0.99285322 0.0016236829
2.0420008 -0.40808529 0.15201253 12826037 -0.08251439 -0.0026948005 0.99658626 0.0012431857
2.0642958 -0.4097704 0.15703623 12299182 -0.12644586 -0.056685403 0.99035257 0.0015185563
2.0525064 -0.39140046 0.15862375 12364975 -0.10855333 -0.025307555 0.99376845 0.0015571429
1.9983772 -0.38984549 0.15590957 12299182 -0.1243668 -0.034120277 0.99164951 0.0016168992
2.0303631 -0.38989443 0.1554158 12562865 -0.11804351 0.020817876 0.99279022 0.0014010725
2.1307459 -0.38980815 0.15982211 12760244 -0.096223459 -0.024431162 0.99505997 0.00082233903
1.9998459 -0.37420303 0.15637366 12299182 -0.12483361 -0.028899956 0.99175674 0.0016458285
2.0315833 -0.37381014 0.15697512 12167855 -0.14007242 0.022307141 0.98988992 0.0022141193
2.0792346 -0.37924013 0.15652333 12299182 -0.12733968 -0.026677469 0.99150038 0.0011031397
2.0585642 -0.36134914 0.15490362 12628406 -0.095936209 -0.0063150525 0.99536753 0.001965299
2.0674391 -0.36096898 0.15810865 12495791 -0.111671 -0.024667859 0.99343902 0.001004288
2.0013146 -0.35856062 0.15683776 12233646 -0.12350323 -0.0053466074 0.99232978 0.00094957178
1.9909006 -0.34116396 0.15784442 12365232 -0.123522 -0.0053515858 0.99232739 0.00094799523
2.0577149 -0.34398186 0.15808584 12167595 -0.10776535 -0.023946457 0.9938879 0.0014701671
1.9906882 -0.33355299 0.15008847 12825524 -0.12564605 -0.02240403 0.99182212 0.00093177496
2.0749216 -0.33052662 0.15612587 12628406 -0.10663424 -0.013114229 0.99421191 0.0019557662
2.082397 -0.33014226 0.15760227 12364973 -0.11551539 -0.025418419 0.99298042 0.0020790836
1.9923607 -0.32561249 0.15830581 12299180 -0.12350351 -0.0053496361 0.99232978 0.0009495297
1.9927596 -0.3139661 0.15460014 12431024 -0.11940043 -0.0022268898 0.99284369 0.0012687426
2.0622697 -0.31250644 0.15963873 12957623 -0.13131659 0.016915189 0.99119622 0.0028315515
2.0705824 -0.31216758 0.15918107 12036010 -0.12762173 -0.0039793267 0.99181491 0.0025911026
1.9808389 -0.30070698 0.15199399 12759990 -0.11396676 -0.0069709979 0.99346012 0.001666287
2.020874 -0.29016936 0.15102595 13155002 -0.14854033 0.0035230296 0.98890013 0.0026065819
2.0845053 -0.29741037 0.15832156 12101801 -0.12535392 -0.018808033 0.99193382 0.0026410688
1.9937185 -0.28650752 0.1511223 12826037 -0.11390915 -0.012312002 0.99341488 0.0015374786
2.0855594 -0.28104439 0.1586812 11970217 -0.12461224 -0.015809596 0.99207956 0.0025890491
2.0220871 -0.27418339 0.15257573 13088955 -0.14354356 0.012904749 0.98955989 0.002553008
1.9828473 -0.26952577 0.1526792 12759990 -0.1139653 -0.011223896 0.99342132 0.0015195531
2.0086162 -0.25645328 0.15050039 12628404 -0.12082499 -0.0027005023 0.99267018 0.0024886664
2.036201 -0.25940815 0.15227184 13023162 -0.16036128 0.01209166 0.98698437 0.0025525766
2.0632381 -0.24554873 0.15014279 12498098 -0.15497172 0.034659266 0.98731083 0.0022340564
2.0876677 -0.2483125 0.15940049 11904170 -0.11775184 -0.011889467 0.9929719 0.002605621
2.0644732 -0.22926781 0.15172118 11180449 -0.13308911 0.02328659 0.99083048 0.0024815984
2.0527849 -0.21207108 0.15512469 12036261 -0.11339138 0.002380617 0.99354756 0.002905044
1.9605252 -0.20405398 0.1525591 12695477 -0.11924714 -0.051647313 0.9915204 0.0027265509
2.0669436 -0.196706 0.1548779 12299182 -0.14261417 -0.009344019 0.98973429 0.0024196641
1.973616 -0.18928882 0.15229869 13219001 -0.10763525 -0.055715356 0.99262804 0.0024158282
2.0821123 -0.18119963 0.15451139 11575720 -0.15394458 -0.035133433 0.98745465 0.0021354719
1.9996346 -0.17505029 0.15015441 12891576 -0.0784657 -0.062628962 0.99494767 0.0015775865
2.0833559 -0.16481286 0.15610003 12430514 -0.14829601 -0.051975131 0.98757625 0.0019796176
1.990096 -0.14299935 0.15495342 12826037 -0.095852524 -0.0455148 0.99435443 0.0017846057
2.0706496 -0.14786327 0.15961301 12891319 -0.11286056 -0.048890729 0.99240732 0.0027625558
2.0858421 -0.13203931 0.15927726 12628658 -0.12321764 -0.032473728 0.99184823 0.0029112552
1.9912869 -0.12730072 0.15647531 12760244 -0.095520012 -0.045571607 0.99438381 0.0018331975
2.0044265 -0.11189277 0.15627724 12496559 -0.083375469 -0.040696166 0.99568695 0.001455537
1.9399482 -0.10868832 0.15013659 12826037 -0.1473065 -0.029011905 0.98866534 0.0020308828
0.67339057 -0.090048961 0.15695624 15132149 -0.80332673 -0.57014954 0.17203431 0.016346924
1.9411112 -0.093360223 0.15162259 12694197 -0.14085738 -0.012270801 0.98995388 0.001443109
2.0056243 -0.096103385 0.15780801 12431025 -0.082548417 -0.026190791 0.99624282 0.002031778
0.66508055 -0.081145883 0.153465 7827591 -0.83294183 -0.49129596 0.25462955 0.016621262
0.67049426 -0.086648107 0.156967 11711165 -0.76563764 -0.60588616 0.21610391 0.022041358
2.0068221 -0.08031401 0.15933871 12299439 -0.079748958 -0.0040260404 0.99680686 0.0015081377
0.65702808 -0.072712503 0.15993264 5918551 -0.83732724 -0.54174358 0.073463641 0.02736724
0.66329902 -0.0787367 0.15829235 7170166 -0.84252995 -0.51543337 0.15643406 0.023247801
1.954214 -0.078131109 0.15131801 12562611 -0.14176957 -0.027164169 0.98952693 0.0013074413
0.65399665 -0.06344562 0.15549731 6182491 -0.91568387 -0.38607842 0.11165434 0.016622825
0.66054726 -0.068512797 0.1547998 6510686 -0.88059795 -0.45972613 0.11488758 0.01594262
1.9553839 -0.062712267 0.15281278 12693938 -0.11846165 -0.016678348 0.99281859 0.0022891525
2.0209866 -0.064544633 0.15903461 11970215 -0.095484704 -0.0027059466 0.99542725 0.0015857493
0.64913023 -0.053009402 0.15739095 5128767 -0.96057081 -0.26322928 0.089521699 0.016509091
0.65305674 -0.055622496 0.15380824 5260613 -0.94307458 -0.32367793 0.076437853 0.016624302
0.64751703 -0.0438416 0.15798546 3813421 -0.98087925 -0.15573558 0.1167146 0.019493395
0.65192485 -0.046832107 0.15242714 4338735 -0.97294307 -0.22309366 0.060091406 0.026201889
1.9565538 -0.047293436 0.15430757 12431027 -0.11183529 -0.010479063 0.99367154 0.0024372789
2.04814 -0.048500344 0.15692443 11378339 -0.089701593 -0.02311255 0.99570048 0.0025224846
0.6475032 -0.035763606 0.15510708 3484196 -0.97659481 -0.10206691 0.18932755 0.01904404
0.65086007 -0.03670992 0.1556097 4009771 -0.99861336 -0.047656741 0.022363989 0.022955839
1.9145447 -0.035704501 0.15098396 12364975 -0.17011113 -0.049441483 0.98418379 0.0024684621
1.9696842 -0.03170133 0.15403819 12431025 -0.1090451 -0.013256156 0.99394846 0.0023360907
2.0493603 -0.032416057 0.15848368 12167342 -0.10101953 -0.011281759 0.99482054 0.0020120668
0.64678925 -0.024386447 0.1550537 3220510 -0.97980994 0.029949216 0.19767503 0.02337232
0.65064198 -0.02574002 0.15193456 3483166 -0.99340987 0.081871569 0.080211699 0.02676758
1.9264772 -0.020588577 0.15014769 12364975 -0.17837483 -0.06274204 0.98196024 0.0022893723
1.9869391 -0.020235654 0.1593411 12035493 -0.18105133 -0.034541681 0.98286688 0.0019952778
0.64772385 -0.012054186 0.15613507 3155486 -0.96348041 0.20856975 0.16794106 0.021881973
0.65150559 -0.017295826 0.15510324 3680802 -0.98330492 0.14405015 0.11118028 0.018644556
1.8963991 -0.016066974 0.15138867 12628145 -0.1270958 -0.012847223 0.99180728 0.0029718187
1.9957937 -0.015641771 0.15188479 12299182 -0.08826977 -0.0015155375 0.99609548 0.0014735661
0.64932007 -0.0019220652 0.15865193 3352866 -0.94544256 0.30690575 0.10930366 0.015702117
0.65238494 -0.006367953 0.15666272 3549729 -0.9568817 0.26290023 0.12353469 0.018982716
1.9164728 -0.0057699485 0.15164177 12233387 -0.18682571 -0.068227306 0.98002106 0.0020643827
1.9879373 -0.0047362708 0.15968171 12034980 -0.18687133 -0.068244673 0.98001117 0.0020535849
0.65624779 0.0060635302 0.15590957 3220766 -0.9246828 0.36032733 0.12298733 0.016902167
1.9174368 0.0091973366 0.15197068 12167594 -0.18687136 -0.068244599 0.98001117 0.0020536068
1.9969848 5.6855381e-05 0.15340668 12233389 -0.086052239 -0.00098892301 0.99629021 0.0014443069
0.65683055 0.012949996 0.15454726 2957851 -0.86814958 0.44639978 0.21689494 0.015086378
0.66172135 0.013441849 0.1508185 3285785 -0.90064818 0.4026244 0.16348231 0.020070158
1.9851958 0.015272895 0.15681124 12232617 -0.086022064 0.0016812161 0.99629188 0.0012920799
0.6578905 0.020685675 0.15045229 2497554 -0.79314256 0.49175256 0.3593109 0.0088487081
0.66432053 0.024193347 0.15192865 2956822 -0.84103382 0.50436801 0.19564018 0.017020486
1.9074163 0.023765113 0.15345925 12101801 -0.18523933 -0.073814131 0.97991729 0.0021694365
0.66769236 0.031212214 0.15285656 2496530 -0.73478556 0.58922869 0.33600563 0.012137138
0.67468685 0.038431384 0.15248965 2890516 -0.66412437 0.67950159 0.31179553 0.011255585
0.68398952 0.03977143 0.15483908 3547673 -0.68791944 0.69228536 0.21796322 0.01689845
1.9083749 0.038648795 0.15378632 12232617 -0.18524265 -0.073831044 0.97991538 0.0021691315
1.9347082 0.030444877 0.15044343 12364973 -0.094062179 -0.0051809326 0.9955529 0.0016537159
1.9863795 0.030873233 0.15832362 12298410 -0.092365831 0.0027570054 0.99572134 0.0012520265
0.68404371 0.045945957 0.1537957 3678489 -0.60138941 0.7374174 0.30748388 0.015182587
1.9478372 0.046319425 0.15011236 12233646 -0.10438137 -0.02747561 0.99415779 0.0011965522
2.0125527 0.047779731 0.15625235 12101031 -0.10743992 -0.0074006468 0.99418414 0.0014129282
0.69344217 0.052519698 0.15382867 3744023 -0.54107857 0.78561491 0.30007181 0.013468946
0.70275497 0.056215998 0.15267561 3612945 -0.49409607 0.78474361 0.37422782 0.015763491
0.70637536 0.060075849 0.15193391 4138265 -0.52659965 0.75110996 0.39815387 0.015563615
0.71299732 0.060415238 0.15359512 3875609 -0.45025745 0.78467071 0.42609873 0.011804698
0.72087991 0.068124622 0.15046191 4335138 -0.44333014 0.77562773 0.44928831 0.022738045
1.9490002 0.061647505 0.15159836 12298928 -0.093872696 -0.013433427 0.99549365 0.0012836466
2.0267529 0.064346604 0.15592903 12166824 -0.10600805 0.0092663243 0.99432212 0.001061253
1.9501632 0.076975614 0.15308437 12364205 -0.094163463 -0.013090409 0.99547076 0.0013827396
2.0279584 0.080234297 0.15746927 11838629 -0.11239455 -0.0024086984 0.99366075 0.0013643532
0.66280353 0.098464966 0.15112965 5853529 -0.97246844 -0.20242451 -0.11545338 0.0044267848
1.9633197 0.093213104 0.15278843 12364458 -0.089595966 -0.0081107607 0.99594516 0.0012566985
2.0291638 0.096122019 0.15900955 11838114 -0.10047401 -0.021422639 0.99470907 0.0015848719
0.65997696 0.10031171 0.15882486 6510688 -0.97148234 -0.20204724 -0.12409283 0.0035475572
0.66553551 0.10494629 0.15415931 5852497 -0.94463748 -0.32790264 -0.011822118 0.0049004289
0.67160594 0.10407037 0.15954131 6905442 -0.94114858 -0.33752421 -0.017797263 0.0067509753
1.9764901 0.10963213 0.15251014 12298665 -0.082285821 -0.0093416795 0.99656498 0.0010344522
0.65991819 0.11664975 0.15267707 5456184 -0.96043193 -0.27033192 -0.067016624 0.0034822319
0.66433287 0.11318307 0.15188186 5456187 -0.92922372 -0.36950678 -0.0028267254 0.0055805538
0.6638937 0.12073392 0.15486181 5323558 -0.93036383 -0.36633819 -0.014814999 0.0047566742
1.953652 0.1229599 0.15754238 12101031 -0.090107866 0.017090248 0.99578542 0.0016330372
1.9668292 0.13946961 0.15727285 12034980 -0.10239828 0.022016943 0.9944998 0.0019596526
1.9920415 0.1574333 0.15527421 12034980 -0.1074198 0.025589809 0.99388438 0.0023918489
1.9293886 0.16792426 0.15076825 12167079 -0.07689923 0.00061255693 0.99703872 0.002328984
2.0062556 0.17451034 0.15490386 11772321 -0.11100657 0.027336024 0.99344367 0.0025269757
2.0074463 0.19020899 0.15642577 11772066 -0.10098554 0.022192448 0.99464035 0.0026561611
1.9557265 0.20132716 0.15008816 12101031 -0.074466467 -0.019709319 0.99702877 0.0019970837
2.0086374 0.20590766 0.15794772 11640735 -0.10507283 0.020085046 0.99426174 0.0026976266
1.9328359 0.21336403 0.15517345 12100773 -0.084289871 -0.013312892 0.99635237 0.0026656091
2.0349298 0.22501321 0.155904 11574429 -0.12235621 0.017218621 0.99233693 0.0017529898
1.8863701 0.23847374 0.15041542 12100773 -0.11526782 0.0028234499 0.99333048 0.0026893716
1.9580523 0.23198339 0.15306017 11903394 -0.069133267 -0.019913256 0.99740869 0.0020264674
1.9712554 0.24913853 0.15276408 11837601 -0.082772911 -0.027270757 0.99619526 0.0021051888
2.0361352 0.24090096 0.15744424 11573916 -0.098113298 0.019895077 0.9949764 0.0015056531
2.0373406 0.25678861 0.15898448 11311257 -0.088842526 0.00097579509 0.99604523 0.0012967625
1.9724253 0.26455736 0.15425891 11575456 -0.083188072 -0.040832013 0.99569702 0.0022799764
1.9615411 0.27796766 0.15751818 11640733 -0.077495307 -0.010788955 0.99693435 0.0024119632
1.969025 0.28423697 0.15440322 11442841 -0.10859775 -0.062479697 0.99212039 0.0017300252
1.9747649 0.29539505 0.1572485 11049376 -0.10491456 -0.028993547 0.99405855 0.0023240575
1.9820946 0.30154043 0.15350881 8086887 -0.10671592 -0.051410608 0.99295956 0.0018263158
2.0671372 0.30897799 0.15999222 7888992 -0.11649607 -0.038726315 0.99243587 0.00098456256
1.9830812 0.3168574 0.1538454 11443873 -0.10869023 -0.0507925 0.99277723 0.0018832262
2.0000706 0.31519401 0.1552496 12102313 -0.093920745 -0.033971753 0.99499995 0.0027019049
1.8826342 0.32831377 0.15020631 11574687 -0.13904376 -0.027527297 0.98990357 0.002171203
1.937433 0.32230347 0.15481105 11509411 -0.11462641 -0.029494222 0.99297076 0.0027474491
1.8474621 0.33488953 0.15288234 11772068 -0.10143202 -0.010194913 0.99479026 0.0035183926
1.9383334 0.33624321 0.15221274 11706013 -0.11040471 -0.012207121 0.99381179 0.0024434673
1.9497436 0.34063303 0.15808561 11180182 -0.10969672 -0.048860319 0.99276346 0.0032745707
1.950713 0.35568395 0.15841636 11245465 -0.11644774 -0.03944841 0.9924131 0.0039973175
1.9636155 0.35633495 0.15006399 11574429 -0.12332372 -0.008894139 0.99232668 0.0022621723
1.9527053 0.36909977 0.15334979 11246491 -0.10930122 0.0019754248 0.99400675 0.0023934364
1.8977156 0.37308526 0.15331224 11114391 -0.13508824 0.0022334477 0.99083108 0.0011226207
1.9516824 0.37073478 0.15874711 10917780 -0.12202287 -0.021461155 0.99229527 0.0037928945
1.9114866 0.38861588 0.15648027 10917012 -0.10979684 -0.018592296 0.9937802 0.00027619331
1.9417809 0.38168314 0.156618 11377563 -0.11743284 0.014368475 0.99297684 0.0018964575
1.952652 0.38578573 0.15907785 11114136 -0.1339504 -0.00089639798 0.99098766 0.0033902272
1.9061799 0.40561983 0.15012109 11574430 -0.11628695 0.032432225 0.99268597 0.0010119766
1.9241245 0.40562019 0.15636744 10917010 -0.10979684 -0.018592298 0.9937802 0.00027615388
1.9536214 0.40083668 0.1594086 11113878 -0.16676439 0.032325584 0.98546678 0.0020202701
1.9671043 0.40231916 0.15452197 11311770 -0.13025384 0.0057250187 0.9914642 0.00166743
1.9682673 0.41764727 0.15600801 11311770 -0.12360659 -0.016620539 0.99219209 0.0017848324
1.9104389 0.43544826 0.15017083 11245464 -0.13948624 0.01385402 0.99012715 0.0024178769
1.9694303 0.43297538 0.15749398 11180184 -0.13402918 -0.016957508 0.99083233 0.0014758316
1.9686772 0.44897926 0.15919189 10916499 -0.14036262 0.030657578 0.98962539 0.0024189432
1.9327461 0.45626435 0.15093422 11179671 -0.1448019 0.027720198 0.98907232 0.0022265145
1.9827007 0.45132041 0.15722418 11048343 -0.14298733 -0.011315919 0.98965991 0.0022274805
1.982332 0.46684247 0.15856864 10916499 -0.14845432 0.021433963 0.98868698 0.0021561077
1.9021398 0.4766036 0.15232702 10982292 -0.10697104 0.009446471 0.99421728 0.0027062909
1.933889 0.47132784 0.15239453 11179671 -0.13606086 0.017008059 0.99055451 0.0031259141
1.946129 0.48941565 0.15218884 11048598 -0.14417209 -0.0094492882 0.98950756 0.0034285181
1.9939333 0.48534381 0.15754792 10915987 -0.13919921 0.014531094 0.99015778 0.0028638514
1.9030823 0.49123642 0.15264857 10916499 -0.11102314 0.018126935 0.99365252 0.0027980544
1.8893919 0.51984644 0.15065593 10982293 -0.098710164 -0.020138532 0.99491245 0.0017543287
1.9263319 0.51219171 0.15060548 10719120 -0.093844339 0.016142938 0.99545604 0.0016432268
1.9715046 0.51134264 0.15003979 11048086 -0.14505322 -0.0055400063 0.98940837 0.0022974403
1.9959065 0.51597768 0.15822111 10587534 -0.16024835 0.027253777 0.98670042 0.0015310645
1.9272851 0.52699172 0.15093072 10850193 -0.091118142 -0.0019803531 0.99583811 0.0010783267
1.9605476 0.52318984 0.15332574 10981779 -0.12578678 -0.0075065047 0.99202895 0.0029473933
1.9016112 0.53793609 0.15036869 10916500 -0.11551423 -0.030250669 0.99284518 0.0014926827
1.9617037 0.53842723 0.15480292 10784913 -0.13793647 -0.03243342 0.98990995 0.0034307477
2.0090704 0.53474075 0.15735878 10587021 -0.15706608 0.034726262 0.9869774 0.001521949
1.9394026 0.54512036 0.15007731 10718607 -0.1027681 -0.019622378 0.99451178 0.0018237137
1.9138433 0.55619216 0.15009761 10719378 -0.12452531 -0.059335794 0.99044067 0.0029779242
1.9628595 0.55366457 0.15628016 10784400 -0.11696653 -0.033731628 0.99256283 0.0027396884
1.9640156 0.5689019 0.15775734 10653328 -0.10316861 -0.059460267 0.99288511 0.0026081912
1.9149729 0.5710817 0.15154105 10719120 -0.13134663 -0.034839019 0.99072415 0.0032712729
1.9998528 0.57724553 0.15956749 10455182 -0.15860879 0.043371465 0.9863885 0.0014467824
1.9272239 0.58958733 0.15129414 10587534 -0.13878831 -0.022278249 0.99007154 0.0041822516
1.9773194 0.58798313 0.15746981 10652814 -0.094815001 -0.03471595 0.99488944 0.00184974
1.9283599 0.60456008 0.15274569 10718607 -0.14453463 -0.022753956 0.98923814 0.0040959893
1.9906365 0.60724574 0.15719983 10652814 -0.10716511 -0.025877543 0.99390441 0.0027868294
1.907228 0.61196768 0.1575458 10652814 -0.16392165 -0.020762295 0.98625487 0.0029897667
2.0140326 0.6117816 0.15905176 10192777 -0.10454284 -0.017080067 0.99437374 0.0029622302
1.9115649 0.62293184 0.15554261 10323849 -0.13022767 -0.05116475 0.99016309 0.0023890201
1.9023238 0.63400668 0.15692398 10258056 -0.12719762 -0.056299549 0.9902783 0.0029203345
1.9306318 0.63450545 0.1556488 10455435 -0.1324306 -0.023684608 0.99090928 0.0039191805
2.0272372 0.63118303 0.15820347 10192263 -0.11872067 -0.036814306 0.99224502 0.0034189976
2.0282354 0.64668238 0.15854408 10060677 -0.11856721 -0.036798615 0.99226391 0.0034294103
1.9134499 0.65219748 0.15618572 10192263 -0.11964013 -0.04365997 0.99185687 0.0034739969
1.9439274 0.65378588 0.15529147 10389642 -0.13102931 -0.023677411 0.99109572 0.0039333822
1.8969696 0.66873652 0.15063268 10389642 -0.11313555 -0.044819642 0.99256814 0.0027693172
1.9041991 0.66312021 0.15756375 10126470 -0.13790223 -0.045042142 0.98942119 0.0033396261
1.9450704 0.66884941 0.15675181 10323849 -0.13378477 -0.011219338 0.99094689 0.0030504016
1.8939185 0.67351234 0.15904392 10060677 -0.14516775 -0.056951672 0.98776662 0.0030704932
1.8964686 0.68572259 0.155711 10126725 -0.14382021 -0.065939836 0.98740453 0.0021268835
1.9462131 0.68391281 0.15821216 10258056 -0.12800808 -0.038852744 0.9910118 0.0018207221
1.8992037 0.69818276 0.15348738 10324103 -0.10362477 -0.09915071 0.98966211 0.0014086881
1.9473561 0.69897622 0.1596725 10126983 -0.11826142 -0.041819986 0.99210149 0.0014551661
1.8441523 0.70776647 0.15057972 10126470 -0.12254041 -0.081000276 0.98915255 0.0024062868
1.8967152 0.71693194 0.15999807 9797505 -0.17207938 -0.038291357 0.98433864 0.0024959161
1.9003208 0.712906 0.15491477 10126470 -0.098707303 -0.09416879 0.99065083 0.0016064062
1.9172198 0.71072865 0.15747195 9863552 -0.1019653 -0.044733476 0.99378169 0.0027581691
1.845239 0.72208881 0.15196821 10191747 -0.12323907 -0.072580747 0.98971927 0.002429747
1.9014378 0.72762913 0.15634212 10060931 -0.086496636 -0.062256858 0.99430501 0.0018052973
1.8460968 0.73776591 0.15280156 9863553 -0.11207974 -0.069110967 0.99129301 0.0028176028
1.973014 0.73822933 0.1592105 9929091 -0.087118141 -0.026824387 0.99583679 0.0018178963
1.9137251 0.74689257 0.15608701 9994884 -0.078856356 -0.054172572 0.99541301 0.0020668034
1.8470937 0.75196981 0.15365057 9666175 -0.11700735 -0.06594564 0.99093914 0.0026719202
1.9098247 0.75046104 0.15948308 9600639 -0.11529557 -0.019866668 0.99313253 0.002076406
1.7825934 0.76184547 0.15016124 9206133 -0.1070254 -0.027274054 0.99388212 0.00013106763
1.9159719 0.77650529 0.15895784 9731966 -0.053872615 -0.023615219 0.99826854 0.0022748488
1.8157226 0.78129327 0.15008622 9600380 -0.087966524 -0.045882341 0.99506623 0.0027418525
1.8709203 0.78869939 0.15421763 9666173 -0.082780033 -0.017143771 0.99642044 0.0015966609
1.7556336 0.79707056 0.15048134 9073004 -0.11621784 -0.036792032 0.99254209 0.0028787516
1.8066392 0.79078275 0.15308437 9271415 -0.11098197 -0.027720414 0.99343574 0.0027976262
1.849497 0.79546267 0.15348451 9139829 -0.10958363 -0.04760921 0.99283677 0.0017447928
1.8506721 0.79370058 0.15891072 9469051 -0.088142484 -0.016753212 0.99596703 0.0015238412
1.8690586 0.79032189 0.15094395 9337467 -0.10631309 -0.040237281 0.99351823 0.002432897
1.9282846 0.79610163 0.15873498 9600380 -0.10882492 -0.059516609 0.99227768 0.0050517404
1.8299161 0.80029953 0.15601836 8743786 -0.1370465 -0.041702069 0.98968643 0.0027093689
1.8051939 0.81016189 0.15031016 8677728 -0.147609 -0.066800021 0.98678738 0.0071503278
1.8280185 0.81414318 0.15119269 9073005 -0.099804133 -0.017151721 0.99485928 0.0018647403
1.8410625 0.81893337 0.15521406 8743786 -0.12502854 -0.032092988 0.99163395 0.0033755642
1.8709135 0.81354278 0.15967441 8613996 -0.45910281 0.88470501 -0.080757581 0.0081487494
1.9238175 0.81315839 0.15972288 9271415 -0.10810995 -0.0078885211 0.99410766 0.002877051
1.9406101 0.81586432 0.15852827 9469051 -0.13627031 -0.065829821 0.98848212 0.005658912
1.8832885 0.82225174 0.15546647 9074293 -0.07285203 -0.041607015 0.99647456 0.0029398238
1.839257 0.83305639 0.15094808 8744299 -0.10116462 -0.034591042 0.99426818 0.0028857582
1.841965 0.83294284 0.15552191 8546407 -0.17140742 -0.16804031 0.97076362 0.025071051
1.884393 0.83680862 0.1568777 8810610 -0.076343507 -0.059192177 0.99532306 0.0024465509
1.9417459 0.83083695 0.15997979 9074295 -0.13347493 -0.035271779 0.99042434 0.0048799221
1.8313881 0.84228522 0.15543792 9533560 -0.17556632 -0.06954661 0.98200804 0.018024024
1.8323741 0.85633361 0.15627757 8941420 -0.33837157 -0.22033501 0.91485363 0.046912663
1.8854975 0.85136539 0.15828893 9468022 -0.095440581 -0.18654577 0.97779948 0.017254988
1.8344034 0.86996692 0.15754932 8480867 -0.50487202 -0.11975886 0.8548463 0.1125999
1.9379276 0.862225 0.15954933 9007220 0.11991535 -0.29463989 0.94805473 0.079153024
1.8323169 0.87079746 0.15668511 8810345 -0.087096632 -0.23662391 0.96768969 0.069939703
1.9388756 0.8769415 0.15987273 8809579 -0.051660519 -0.38066608 0.92326844 0.1004987
1.7903135 0.88017488 0.15229592 8481125 -0.12041791 -0.16147707 0.97950226 0.046947803
1.8353009 0.88390052 0.15785551 8284001 -0.75493485 0.60259122 -0.25876078 0.14132972
1.7468946 0.89819378 0.1560567 6837331 0.051859867 -0.96432006 -0.25960997 0.0178729
1.8435783 0.89001316 0.15646982 8415587 -0.13987829 -0.33143654 0.93305087 0.13178594
1.6870121 0.90454656 0.15538388 6115151 -0.066804171 -0.96376216 -0.25826311 0.01924769
1.8117248 0.90445983 0.15034536 8152160 -0.19481191 -0.44752139 0.87279612 0.11730889
1.8446587 0.90425247 0.1578503 8021344 0.1001149 -0.60479295 0.79006487 0.17780922
1.845739 0.91849154 0.15923071 7429981 0.03822042 -0.89086014 0.45266712 0.16238998
1.8670335 0.91330338 0.1548603 7823967 0.1471272 -0.96471822 0.21834002 0.14456387
1.8229735 0.9237597 0.15006402 7626588 0.22231644 -0.78361303 0.58010876 0.14252678
1.8679457 0.92746484 0.1551715 7364186 0.083865032 -0.99618518 0.024122342 0.10249481
2.3213835 -1.1552858 0.16833925 10916751 -0.09238103 0.013281405 0.99563515 0.0012324117
1.660666 -1.1358305 0.16402951 11252412 -0.51777893 0.62274659 0.58659339 0.079472199
1.6713258 -1.1280694 0.16374329 10923196 -0.63164026 0.45872575 0.62498111 0.064553045
1.6723665 -1.1143521 0.16507313 5000555 -0.64869529 0.45904008 0.60702282 0.068265535
2.1873121 -1.1121378 0.16506901 12759214 -0.13200952 0.036902778 0.99056137 0.0013785188
2.3599753 -1.1147432 0.16967416 11704984 -0.11173704 -0.0034563988 0.99373186 0.0016295563
1.6558794 -1.1043437 0.1613619 6049908 -0.66814911 0.58023536 0.46572927 0.093906693
1.6830434 -1.106364 0.16480893 7176324 -0.73248237 0.45240089 0.50872701 0.079910085
2.2189846 -1.10851 0.16289169 12890802 -0.099019825 0.0041557844 0.99507678 0.001986132
1.6927676 -1.0976595 0.16471809 8748937 -0.7971493 0.32821104 0.50678456 0.075896204
2.2203288 -1.0907923 0.16460931 12956595 -0.099085003 0.0040942947 0.99507052 0.0019806745
2.3285463 -1.0940758 0.16994946 11574938 -0.11189154 -0.031197205 0.99323058 0.0014105658
1.6938193 -1.0837984 0.16606188 7039877 -0.76070082 0.31822053 0.56574732 0.055924177
1.6757735 -1.0741166 0.16025057 7435399 -0.8009358 0.28705713 0.52545232 0.060421243
2.2373543 -1.0799838 0.16435182 12825009 -0.10833749 -0.0036984677 0.99410731 0.0019687919
1.6948709 -1.0699373 0.16740566 4205370 -0.69573909 0.40196636 0.59529006 0.064343847
1.7055818 -1.0615033 0.16718471 10921879 -0.60354352 0.55930108 0.5682584 0.04618717
1.67581 -1.0578008 0.16042922 7501178 -0.75857079 0.34272397 0.55417567 0.047184911
1.7163038 -1.052918 0.16697839 6179401 -0.60128927 0.62348825 0.49971357 0.033212595
2.1669049 -1.0588459 0.16450608 12758961 -0.12318257 -0.040191568 0.99156982 0.0014470093
2.1981363 -1.0550182 0.16223711 12956858 -0.10621666 -0.037619252 0.99363118 0.001302518
2.2230177 -1.055357 0.16804469 12956083 -0.11756016 0.0088326409 0.99302655 0.0021609939
1.6866126 -1.0496808 0.16033758 10525592 -0.65527403 0.50763118 0.55939841 0.032892108
1.7270377 -1.0441813 0.16678679 7233631 -0.79014146 0.4805046 0.38051516 0.032656599
2.2138474 -1.0438672 0.16134351 12826037 -0.10178018 -0.026541319 0.99445283 0.0013206505
2.2400608 -1.0443065 0.16781062 12890802 -0.11342061 0.013621331 0.99345368 0.0022320065
1.687904 -1.0359263 0.16074567 11579560 -0.62220937 0.50918639 0.59463 0.019283948
1.7073075 -1.0324451 0.16021712 12433848 -0.61730862 0.42577463 0.6615482 0.017457353
1.7281065 -1.0300934 0.16815257 10392461 -0.82094741 0.42682013 0.37930202 0.042683739
2.2738132 -1.0399693 0.16553885 12759214 -0.091220081 0.010977931 0.99577034 0.001337032
1.7181522 -1.0238777 0.16013876 11579057 -0.69679177 0.33961761 0.63177621 0.025655307
1.7386252 -1.0221572 0.16883728 9208193 -0.86269796 0.41354239 0.29109266 0.04990074
1.6911911 -1.0166104 0.16106766 11643831 -0.79289269 0.32761821 0.51379716 0.024000185
1.74962 -1.0120153 0.16782796 9208448 -0.84230942 0.29133523 0.45347401 0.061450649
2.2594676 -1.015456 0.16922066 12825007 -0.10038398 -0.015779324 0.99482363 0.0022279751
1.7004056 -1.0083182 0.16154169 11184310 -0.78104186 0.31408879 0.53974241 0.026895443
1.7189881 -1.007345 0.16140339 10789289 -0.70350218 0.38077506 0.60007924 0.029373107
1.7207763 -0.99592912 0.16096798 10723230 -0.73169029 0.33551103 0.59334791 0.018072287
1.7507004 -0.99777615 0.16920841 9010042 -0.89264816 0.18381806 0.41157046 0.082937777
1.709955 -0.98649311 0.16226071 10394791 -0.63944912 0.43094581 0.6367029 0.035527393
1.7316496 -0.98705852 0.16089861 10394006 -0.73976249 0.36924475 0.56250322 0.024203662
2.3127608 -0.98049873 0.16853043 12495789 -0.092546232 -0.039608691 0.99492025 0.0010674689
1.7102864 -0.97309756 0.16250323 10130592 -0.63717812 0.28193116 0.71729976 0.029017491
1.7351334 -0.97339332 0.16238904 10195348 -0.70160431 0.40042609 0.58941525 0.035481974
1.7516812 -0.97180438 0.1699101 8615284 -0.84114689 0.43596202 0.32001436 0.10062892
1.7438633 -0.96391022 0.16125286 10064271 -0.65471452 0.5226537 0.54606044 0.033432484
1.7622576 -0.96252906 0.16920328 8417905 -0.69312787 0.53909099 0.47849214 0.083919525
2.1789412 -0.96440488 0.16355845 13549760 -0.11979254 -0.020975761 0.99257737 0.002048691
1.7287391 -0.95555347 0.16346864 9931920 -0.62411231 0.3186 0.71342695 0.045244448
1.7547722 -0.95466042 0.16119474 9866892 -0.63954663 0.61550415 0.46058083 0.035893209
1.7728436 -0.95310175 0.16849981 8745331 -0.74497366 0.61469811 0.25915334 0.096570067
2.194984 -0.95281893 0.16334653 13483713 -0.13071439 -0.015264534 0.99130255 0.0017924404
1.7379708 -0.94657588 0.16395508 9669000 -0.6871289 0.31145197 0.65639293 0.066674046
1.7561048 -0.94120318 0.16315137 9471620 -0.74051297 0.44262993 0.50568694 0.064973377
2.2110438 -0.9410063 0.16315657 13483967 -0.14237835 -0.015697734 0.98968786 0.0018636335
2.1914372 -0.9262566 0.16620523 13088698 -0.11510555 -0.023292607 0.9930802 0.0016057863
2.1976366 -0.91785252 0.16673642 13351868 -0.14311048 0.016345344 0.98957175 0.0013541862
2.1769562 -0.90279549 0.16793531 13023416 -0.14901717 0.028591491 0.9884212 0.0015178875
2.2137136 -0.90581298 0.16656846 13351868 -0.15083373 0.0083608776 0.98852384 0.0013084356
2.2083242 -0.89684689 0.16571295 13022902 -0.12562171 0.0077581257 0.99204791 0.0017792364
2.230792 -0.89390188 0.16629907 13417661 -0.14504357 0.0072395359 0.98939878 0.0013113178
2.2478886 -0.88174891 0.16605309 13088696 -0.13751607 0.0028790236 0.99049538 0.00094439479
2.1791899 -0.86811763 0.16869739 13022902 -0.12272324 -0.013229574 0.99235278 0.0029380238
2.2492418 -0.8639102 0.16778246 13220282 -0.13481745 -0.0051806052 0.99085695 0.0011794337
2.1959357 -0.85641426 0.16774005 12957110 -0.11050656 -0.011889745 0.99380428 0.0025150622
2.2420168 -0.8548066 0.16428365 13022133 -0.10418683 -0.0030085987 0.99455321 0.0020434863
2.2505956 -0.8460716 0.16951182 13153974 -0.16783333 -0.03638855 0.9851436 0.0018971544
2.1852455 -0.82348943 0.16016316 13812418 -0.13396512 -0.0098035196 0.99093759 0.0010861794
2.0808787 -0.81508052 0.1609247 13417920 -0.11730221 -0.037523191 0.99238718 0.0027584154
2.0946412 -0.80297899 0.16010533 13417661 -0.10598145 -0.018106045 0.99420327 0.0024356744
2.1993098 -0.80403262 0.16889113 12891317 -0.11242028 -0.01388547 0.99356371 0.0022336463
2.2026558 -0.79350007 0.16162401 13417920 -0.13979076 -0.035218984 0.98955458 0.0014688061
2.2187653 -0.78065383 0.16142285 13220794 -0.1223032 -0.052652694 0.99109519 0.0025481875
2.2201004 -0.76305717 0.16312879 13416891 -0.13041653 -0.052667331 0.99005949 0.002674924
2.113718 -0.72388059 0.16067472 12759731 -0.113351 0.0079529407 0.99352318 0.0013159971
2.2079616 -0.72356707 0.16840374 13614270 -0.1423215 -0.031783342 0.98931009 0.0030847788
2.1147175 -0.71299028 0.16150483 13417661 -0.11351688 -0.045790527 0.99248028 0.0032760461
2.1770735 -0.66099775 0.16052139 13286077 -0.12938595 0.018400634 0.99142361 0.0044630291
2.2546356 -0.658894 0.16858889 12627379 -0.16097473 0.050267 0.9856776 0.0059700725
2.0933883 -0.64180654 0.16023445 12166824 -0.11018791 -0.033551797 0.99334431 0.0018138121
2.1783819 -0.64374888 0.1621936 13154748 -0.11985484 -0.0089631453 0.992751 0.0047780685
2.2557828 -0.64108378 0.16898026 12495791 -0.16097459 0.050317921 0.98567504 0.0059687519
2.1349325 -0.62708825 0.16154949 12627893 -0.10334706 -0.0067219529 0.99462265 0.00035278095
2.1360211 -0.61019015 0.16192083 12562354 -0.10105329 0.001489317 0.9948799 0.00028974854
2.2116537 -0.61669803 0.16159639 12891319 -0.10865219 -0.014727928 0.99397075 0.0051787952
2.0827794 -0.60509014 0.16178934 12035238 -0.11031736 -0.041186288 0.99304271 0.0024940376
2.2580771 -0.60546327 0.16976304 12036008 -0.17450851 0.039278794 0.98387194 0.0060155252
2.0768371 -0.59986401 0.16063893 12892344 -0.14644787 0.0036631296 0.98921156 0.0029616104
2.1371095 -0.59329206 0.16229217 12561837 -0.10189564 0.0040540434 0.99478686 0.00032639547
2.1823082 -0.59200239 0.16721022 12825526 -0.13091204 -0.066682242 0.98914891 0.0025305797
2.0705976 -0.5851233 0.1628473 12101031 -0.1117216 -0.019281516 0.99355251 0.0033615294
2.0995991 -0.5756579 0.16219701 11904422 -0.1255562 -0.021904269 0.99184471 0.0028334907
2.1381979 -0.57639402 0.1626635 12495789 -0.11032699 0.014731264 0.99378616 0.00058535673
2.1836166 -0.57475352 0.16888243 12693940 -0.12996459 -0.065517582 0.98935169 0.0019617875
2.1530602 -0.56272137 0.16179517 12429998 -0.11607131 0.0031662397 0.99323583 0.00061639625
2.0736632 -0.55247355 0.16381598 12101031 -0.11252593 -0.022294594 0.99339867 0.0034098031
2.1072717 -0.55644071 0.1618439 12759990 -0.14546277 0.026725501 0.9890027 0.0014056313
2.1263001 -0.5458914 0.16178732 12430509 -0.13978051 -0.009907634 0.99013299 0.0021934407
2.1541555 -0.54571694 0.16216886 12429996 -0.11263267 0.003442103 0.99363071 0.000754387
2.1455503 -0.5353803 0.16199532 12166824 -0.13735478 -0.021746438 0.99028319 0.0024414596
2.1246448 -0.52618384 0.16310796 12759990 -0.16377707 0.010697968 0.98643941 0.0016922795
2.141463 -0.52569991 0.16377752 12298410 -0.13074815 -0.0034007523 0.99140978 0.0012741179
2.1397786 -0.51219535 0.16290611 12693940 -0.15686724 0.01754269 0.98746389 0.0017098521
2.1563458 -0.51170796 0.16291621 12298410 -0.15327467 -0.023367474 0.98790735 0.0013074666
2.0526805 -0.49791795 0.16629921 12101031 -0.094529718 -0.023085378 0.99525434 0.0024165108
2.1410618 -0.49527925 0.16454607 12562354 -0.15563938 0.024589727 0.98750788 0.0017072681
2.1574411 -0.49470347 0.16328987 12298410 -0.15777813 -0.02967969 0.98702848 0.0013596403
2.0669944 -0.48448217 0.16626552 12101801 -0.095101491 -0.031168669 0.99497956 0.0021530059
2.1447282 -0.47500569 0.16489154 12298410 -0.1558919 -0.029217713 0.98734194 0.0014426378
2.1458168 -0.45810765 0.16526288 12232617 -0.14801852 -0.023349296 0.98870891 0.0021665785
2.1736856 -0.44949892 0.165757 12299180 -0.12670544 0.034700148 0.99133331 0.0012287429
2.1320963 -0.43855196 0.16694488 12232617 -0.1497812 -0.027149182 0.98834634 0.0022921658
2.1402345 -0.43159547 0.16557331 11970214 -0.13158955 -0.012462923 0.99122602 0.0024698351
2.1749859 -0.43236348 0.16741824 12430251 -0.12987301 0.016848281 0.99138755 0.0016053809
2.1479936 -0.42431155 0.16600555 12363946 -0.15464944 -0.038252793 0.98722857 0.0031152228
2.0874581 -0.40554979 0.16817506 11970214 -0.10537615 -0.025606969 0.99410272 0.0020475439
2.1145983 -0.40428841 0.16019887 12759730 -0.084031954 -0.021932147 0.99622172 0.0011811832
2.1490819 -0.40741348 0.16637689 12298153 -0.1571455 -0.017271124 0.98742443 0.0028486745
2.1924944 -0.40032205 0.16885519 12232872 -0.14476298 -0.035268702 0.98883766 0.0017797116
2.116679 -0.39374912 0.16759406 12036007 -0.1132888 -0.025836203 0.99322611 0.0018739733
2.1640127 -0.39267659 0.16553193 12298153 -0.14781559 -0.0087425802 0.9889763 0.0028133597
2.2097144 -0.38533017 0.16852805 12035491 -0.14549977 -0.045558497 0.98830879 0.001846005
2.1315589 -0.3761059 0.16452238 12365228 -0.11583813 -0.031046307 0.99278283 0.0014493691
2.1799471 -0.37787369 0.16460496 12298410 -0.13483097 -0.0049601723 0.99085623 0.0028993846
2.1613762 -0.36682412 0.16699621 11970215 -0.11185786 -0.032745127 0.99318457 0.0018076923
2.2259579 -0.36996284 0.16834855 12100771 -0.13214138 -0.02580338 0.99089503 0.0022332
2.1332965 -0.35618767 0.16308147 12628144 -0.1191034 -0.056622863 0.99126601 0.0014070974
2.1523471 -0.35671932 0.1674909 12167079 -0.13639139 -0.0069087744 0.99063098 0.0023700763
2.1342201 -0.34594241 0.16858011 11970215 -0.11112603 -0.042966485 0.99287707 0.0014874373
2.1484847 -0.34112859 0.16287938 12496812 -0.10722561 -0.034939229 0.99362069 0.0021502192
2.1534355 -0.33982128 0.16786224 12232872 -0.1297453 -0.047435213 0.99041212 0.0028756233
2.1497684 -0.32421249 0.16451934 12496559 -0.098695159 -0.033481792 0.99455434 0.0021180459
2.1683939 -0.32465869 0.16702664 12166824 -0.11698571 -0.037701976 0.99241769 0.0031691375
2.153332 -0.30666077 0.16738212 12298666 -0.11645223 -0.037803221 0.99247658 0.0027167599
2.0635052 -0.29622552 0.16121712 12891317 -0.14437079 0.009220399 0.98948079 0.0028950199
2.1672678 -0.29191628 0.16586968 12233386 -0.096631214 -0.016361229 0.99518579 0.0020103634
2.0786514 -0.28136629 0.16089174 12562611 -0.12322709 0.0026841313 0.99237496 0.0024431909
2.1825047 -0.27621445 0.16572994 12233386 -0.10646094 -0.021781296 0.99407828 0.001825248
2.0768101 -0.26417285 0.16136694 12167852 -0.12749837 0.0092070922 0.99179602 0.0025201219
2.183805 -0.25907907 0.16739118 12101800 -0.11226283 -0.021268092 0.993451 0.0017731565
2.0950651 -0.24980266 0.16218579 12496309 -0.11695397 0.015176794 0.99302137 0.0026224498
2.1851048 -0.24194366 0.16905242 12036007 -0.11425389 -0.031830996 0.99294156 0.0020780296
2.0963163 -0.23331001 0.16378468 12366255 -0.16927236 0.030411601 0.98510003 0.0024347533
2.1244588 -0.21874249 0.16179124 9534593 -0.12788339 -0.020334691 0.99158078 0.002913119
2.111774 -0.20115334 0.16526237 12826288 -0.17174701 -0.010596305 0.98508412 0.0025235293
2.1269922 -0.18534887 0.1650286 12496818 -0.16958803 -0.026135571 0.98516846 0.0018671015
2.1282592 -0.16865204 0.16664729 12496561 -0.16770388 -0.024059437 0.98554379 0.0018945732
2.1295257 -0.15195523 0.16826597 12167593 -0.16461533 -0.030353196 0.98589075 0.0027330662
2.1307926 -0.13525842 0.16988465 12167593 -0.17223817 -0.011806212 0.98498464 0.0029921166
2.0870857 -0.11565252 0.1608659 12562354 -0.12398943 -0.040312301 0.99146432 0.0030449741
0.68652844 -0.10257521 0.16454594 11113888 -0.64612782 -0.62922746 0.43196255 0.047413234
2.1623249 -0.1023974 0.16941252 12167593 -0.1824123 -0.01754047 0.98306566 0.0026807168
0.67672718 -0.093637243 0.16428731 14803951 -0.74180067 -0.59118289 0.31659859 0.037785336
2.0743551 -0.099020548 0.16434819 12627893 -0.10282663 -0.03054798 0.99423009 0.0030604505
0.6657716 -0.084762618 0.1671036 8947610 -0.75378782 -0.59810168 0.27217326 0.034678377
0.67000324 -0.084579274 0.16778749 7761274 -0.71953064 -0.61201811 0.3281914 0.028759498
2.1165366 -0.083147697 0.16041091 12562100 -0.13676406 -0.02986034 0.99015349 0.0024236199
0.65410674 -0.072820246 0.16826104 5853267 -0.82554162 -0.51233953 0.23662056 0.043547451
0.66591978 -0.078575626 0.16520482 6181472 -0.83921212 -0.51011252 0.18843657 0.030241443
0.64909524 -0.06210003 0.16928168 6312530 -0.93093097 -0.315404 0.18408675 0.03603287
0.6533547 -0.065191805 0.16672164 6839902 -0.90096706 -0.42014652 0.10832985 0.022724494
0.6602518 -0.068172045 0.16078961 6313047 -0.88075906 -0.44783437 0.15397315 0.013098765
2.1177955 -0.066556744 0.16201934 12561584 -0.13096535 -0.029402167 0.99095088 0.002473532
0.64555061 -0.054110765 0.16740009 5523523 -0.96211559 -0.23408963 0.13977034 0.02426797
0.65204841 -0.05765814 0.16663386 5523528 -0.92088461 -0.3635948 0.14060697 0.029834732
2.0920587 -0.05010543 0.16722047 12299182 -0.12866354 -0.033707485 0.99111533 0.0022611972
0.64758253 -0.04662136 0.16836303 4996410 -0.95135981 -0.21514374 0.22051698 0.040033095
0.65088427 -0.048646394 0.16116579 4732983 -0.96255362 -0.25816092 0.082725085 0.040789466
0.64631194 -0.037589539 0.16692711 4273201 -0.97986412 -0.077345528 0.184076 0.035703398
2.0933018 -0.033718646 0.16880912 12166826 -0.11380923 -0.025384057 0.99317825 0.0023413138
0.64521861 -0.024271002 0.16887228 4010541 -0.96147478 0.044061657 0.27133912 0.052119959
0.65051979 -0.026007313 0.16032967 4272944 -0.99636549 0.080519736 0.027793542 0.017941179
