# .PCD v0.7 - Point Cloud Data file format
VERSION 0.7
FIELDS x y z rgb normal_x normal_y normal_z curvature
SIZE 4 4 4 4 4 4 4 4
TYPE F F F U F F F F
COUNT 1 1 1 1 1 1 1 1
WIDTH 527
HEIGHT 1
VIEWPOINT 0 0 0 1 0 0 0
POINTS 527
DATA ascii
0.79931337 0.14262009 0.024016554 6837574 -0.10420882 0.0057237549 0.99453902 0.0021521924
0.80263221 0.14190331 0.021058917 7231816 -0.12845993 -0.006652467 0.99169242 0.0010076339
0.81425685 0.14395033 0.025362233 6968903 -0.11555024 0.0016125444 0.99330026 0.0024617559
0.82672065 0.14336133 0.02496402 7428943 -0.10427827 0.0064891633 0.99452704 0.0016147037
0.83587694 0.14741573 0.028393567 7100754 -0.14868638 -0.0086208656 0.98884684 0.0033484744
0.84129047 0.14454643 0.025688946 8087392 -0.095020168 0.01652967 0.99533814 0.0018890882
0.85555673 0.1407896 0.02834186 8548715 -0.14838059 0.023347534 0.98865467 0.0013570548
0.86669779 0.14433408 0.028921485 10785426 -0.10575092 0.0069261119 0.99436861 0.0032502424
0.8998754 0.14806907 0.029663622 11311517 -0.084526956 0.022329763 0.996171 0.0051546851
0.75403816 0.15254569 0.020689979 6903367 -0.089396559 0.0080781225 0.99596339 0.0019923334
0.76497835 0.15578988 0.020044744 7428682 -0.091890246 0.03253486 0.99523753 0.0025439011
0.77363986 0.15520273 0.021320364 7231560 -0.12217513 0.00863655 0.99247092 0.0035041401
0.7867837 0.15687667 0.022860071 6903109 -0.12033847 0.016432781 0.99259692 0.0028301489
0.79861784 0.15687628 0.023906305 6706245 -0.11586674 0.026802586 0.99290305 0.0019507955
0.80320668 0.15261735 0.023624027 7165769 -0.099624999 0.001808978 0.99502343 0.0018471172
0.8153699 0.15332904 0.024886433 7166026 -0.10457279 0.014903511 0.99440551 0.0019828458
0.82515258 0.15241545 0.026110729 7166028 -0.11668334 0.013258272 0.99308068 0.0022263601
0.83800495 0.15403035 0.028763399 7757914 -0.14385208 0.027368288 0.98922074 0.0023475145
0.84336179 0.15267079 0.025907218 7495256 -0.11242636 0.020849261 0.99344128 0.0014402658
0.85574585 0.15410243 0.026293704 9140341 -0.11231784 0.012029864 0.99359953 0.0018810476
0.87211156 0.15565869 0.028882295 10324875 -0.11072917 0.011420161 0.99378496 0.0023656134
0.90309387 0.15679049 0.02890873 11377308 -0.084334768 -0.01276026 0.99635577 0.0050757937
0.74483901 0.16405332 0.020501077 7822672 -0.079118617 0.0082901502 0.99683076 0.0021066989
0.75332481 0.16136056 0.021002546 6968907 -0.076992646 -0.017883297 0.99687129 0.0019009789
0.77433735 0.16012427 0.02057308 6837572 -0.10643554 0.023795189 0.99403489 0.0042777974
0.78388423 0.16644251 0.022441333 7034439 -0.12243575 0.012865523 0.99239308 0.0027179467
0.79685909 0.16440454 0.022679299 7165768 -0.11824204 0.010879104 0.99292517 0.001888101
0.80439425 0.16491584 0.022553781 7297098 -0.1029846 0.017388312 0.99453098 0.0016173766
0.81646019 0.16317558 0.025022291 7362892 -0.098774225 0.018732904 0.99493355 0.0017739323
0.8288843 0.16136639 0.025847822 7626323 -0.11356564 0.030818293 0.99305236 0.0014487099
0.83587754 0.16831878 0.027420819 7757399 -0.11863492 0.03610662 0.99228126 0.0022923935
0.84409469 0.16629864 0.026782535 8153185 -0.10979447 0.014238949 0.99385232 0.0018068722
0.85792238 0.16217367 0.028162509 8745584 -0.13939652 0.021882974 0.98999482 0.0016265664
0.86242521 0.16833216 0.024900794 10061188 -0.11573238 0.0065455739 0.99325889 0.0021090659
0.87448138 0.16956621 0.027437329 11113879 -0.10817149 0.004873842 0.9941203 0.0026739109
0.90721178 0.16574807 0.027696967 11377308 -0.070481189 -0.02488192 0.99720275 0.0053040693
0.75488961 0.17406496 0.020422518 6837577 -0.087839164 0.0010202571 0.99613422 0.0029858246
0.77387542 0.17543736 0.020685643 7626061 -0.12434068 -0.003845565 0.99223214 0.0033680778
0.78403276 0.17548388 0.022381663 7166024 -0.10593585 0.017701453 0.99421543 0.0029262002
0.79522216 0.17613459 0.022253938 7362890 -0.11290793 0.0111856 0.99354249 0.0021495151
0.80401957 0.17466466 0.023582995 7231819 -0.10248519 0.020165309 0.99453014 0.0017382768
0.814713 0.1743044 0.02321887 6903368 -0.13871671 0.018574815 0.9901579 0.0011890049
0.82297611 0.17432307 0.024424503 7429200 -0.093574747 0.016865099 0.99546939 0.0015801871
0.83458471 0.17254299 0.023313284 8086874 -0.086401679 0.022947872 0.99599606 0.0022473629
0.84364879 0.17565799 0.028353326 8218466 -0.11301457 0.021710083 0.99335611 0.0022775312
0.85853922 0.17625359 0.02839011 8745839 -0.12660107 0.0094138375 0.99190903 0.0019123913
0.86027336 0.17562994 0.026950359 10061188 -0.10557641 -0.0094653377 0.99436617 0.0022697712
0.87500018 0.17756395 0.028052151 10982550 -0.11411289 0.004504018 0.99345762 0.002292054
0.90774536 0.17397325 0.028329313 11311004 -0.092828043 -0.033765133 0.9951095 0.0053332248
0.76652992 0.18401413 0.021472946 7166284 -0.098841459 -0.0012922601 0.99510235 0.001884826
0.77569592 0.18616028 0.021293312 7625805 -0.11824889 0.01781136 0.99282426 0.0019801422
0.78543687 0.18412232 0.022285983 7166024 -0.099576347 -0.0025298023 0.99502677 0.0027550994
0.79955089 0.18616585 0.023631483 7691854 -0.094227321 0.022684852 0.99529225 0.0022315627
0.80427426 0.18572988 0.022417184 7034698 -0.10387023 -0.0039160829 0.99458319 0.0022382571
0.81530273 0.18506366 0.025664721 7166029 -0.095807321 0.0067643137 0.99537694 0.0020318367
0.82522434 0.18421805 0.024605155 7560530 -0.1157167 0.015647672 0.993159 0.0019405386
0.83657157 0.18414547 0.025815148 7955290 -0.10327137 0.014757256 0.99454373 0.0019858566
0.84754449 0.18529409 0.026019702 8548201 -0.10190282 0.0088992845 0.99475461 0.002317596
0.86371058 0.18814835 0.026424229 10061447 -0.11112425 0.0059026335 0.99378902 0.0020119436
0.87819517 0.18620637 0.027249098 10850964 -0.11510429 0.0026887804 0.99334979 0.0017532605
0.89033037 0.18757525 0.029957414 11113879 -0.1065043 -0.026120743 0.99396908 0.0043034093
0.75619781 0.19202916 0.02036956 6968907 -0.082742587 0.021285841 0.99634367 0.0028153921
0.76670128 0.19866836 0.020623088 7626064 -0.10403678 0.019627728 0.99437976 0.0021976165
0.77195084 0.19471759 0.021639824 6772041 -0.1001908 -0.020194152 0.99476331 0.0038580026
0.78783017 0.19356249 0.022415349 7231819 -0.10732394 -0.0036622274 0.99421734 0.0019633865
0.79912233 0.19421808 0.02050674 7626319 -0.084134318 -0.0099682147 0.99640459 0.0017596377
0.80250305 0.19438177 0.022459105 7363146 -0.093972765 0.012275894 0.99549907 0.002503789
0.81698805 0.19406936 0.024213813 7429199 -0.091784924 -0.010752463 0.9957208 0.0025722738
0.82649422 0.19184861 0.026081875 7494994 -0.11972258 0.0092118755 0.99276465 0.0026035751
0.83909255 0.19487529 0.027570672 7889754 -0.119738 0.025292853 0.99248326 0.002459527
0.84425616 0.1962291 0.026756516 8152929 -0.10293794 0.023282776 0.99441522 0.0028421704
0.85419148 0.19289245 0.027593693 9008754 -0.093228035 0.028431442 0.99523872 0.002720234
0.87731808 0.19780163 0.02936165 10193033 -0.13558106 0.040621772 0.98993313 0.0013335511
0.88469207 0.19873282 0.029379547 9337725 -0.1279456 0.0013752463 0.99178028 0.00450591
0.77032465 0.20987029 0.020210177 7691854 -0.099582136 0.051785462 0.99368089 0.001896499
0.78594744 0.20478722 0.022169389 7297871 -0.12187374 -0.006091191 0.99252695 0.0042457362
0.79589182 0.20678279 0.023093045 7757650 -0.084762782 0.019362053 0.99621302 0.0012799428
0.80322748 0.20255835 0.023586562 7428942 -0.11011493 -0.00055848766 0.99391872 0.0035575412
0.81684405 0.20203622 0.022586087 7757395 -0.10475677 -0.0053616436 0.99448335 0.0021098747
0.82401973 0.20501384 0.025326278 7692118 -0.073649734 -0.017533589 0.99712998 0.0036574113
0.83453083 0.20435086 0.026590005 7363924 -0.10039221 -0.0020268995 0.99494588 0.0032160319
0.84215719 0.20410806 0.026127776 8284772 -0.10179161 0.0071665691 0.99477994 0.0037661744
0.85641259 0.20611446 0.027503833 8942704 -0.081809275 0.018126735 0.99648315 0.003319419
0.86575848 0.20511276 0.026747756 9403516 -0.10784484 0.025859503 0.99383134 0.0024239961
0.87891823 0.20883197 0.029508084 9338749 -0.11551531 0.024267329 0.99300921 0.0016762814
0.8940689 0.20445584 0.02980876 10982292 -0.12754808 0.033592407 0.99126339 0.0017694752
0.75802284 0.21431822 0.020416349 7560781 -0.096678711 0.045182306 0.99428958 0.001384282
0.76999182 0.21093456 0.022403181 6969161 -0.11525381 -0.013274804 0.99324739 0.0057865577
0.78744715 0.21554606 0.022430256 7494226 -0.11797176 -0.0029218891 0.99301261 0.0047185984
0.79466438 0.2144005 0.021780029 7691858 -0.093540065 0.017799584 0.9954564 0.0017551491
0.80473554 0.21402641 0.025189895 7626578 -0.11170051 0.0010725198 0.99374133 0.0049120598
0.814937 0.21188135 0.021720588 8020823 -0.10497938 -0.070389658 0.9919802 0.0014982208
0.82413453 0.21238281 0.02417759 7888978 -0.10859545 0.0045774849 0.99407548 0.0022333977
0.83423734 0.21518558 0.026101306 7692374 -0.1051506 -0.023461083 0.99417955 0.0034082336
0.84605491 0.2160455 0.026326042 7758175 -0.088753901 -0.018587846 0.99588013 0.0030723917
0.85835296 0.21633619 0.02737459 8678765 -0.092259809 -0.019421099 0.99554551 0.0032999702
0.86055136 0.21823192 0.028337508 9336184 -0.1204241 0.00044906887 0.99272245 0.0012859349
0.87575078 0.21392661 0.027156562 10128006 -0.12946653 -0.017014241 0.99143779 0.0020947389
0.88189828 0.21951115 0.028739721 9008239 -0.1229512 -0.02231838 0.99216169 0.0022120471
0.75728303 0.22826435 0.020363644 6969679 -0.13187706 -0.043078579 0.99032956 0.0055291844
0.76255339 0.22377291 0.024852261 7167060 -0.15835093 -0.046020851 0.98630989 0.0050833863
0.77026743 0.22013426 0.022401646 5981495 -0.13625976 -0.035420336 0.99003983 0.006268159
0.7872352 0.22718523 0.020903885 8613736 -0.11521161 0.010956489 0.99328053 0.0013971943
0.79520774 0.22673759 0.022728734 7626582 -0.11178716 -0.00050534128 0.99373209 0.0046806522
0.80593199 0.22339226 0.02221336 6771274 -0.10500031 -0.016336454 0.9943381 0.0024808475
0.81673437 0.22554736 0.025247246 7296844 -0.10611528 -0.008250257 0.99431962 0.0038852119
0.824211 0.22172436 0.024744011 6113349 -0.11600678 -0.025828889 0.99291259 0.0025580421
0.83659917 0.22677851 0.026995398 8087655 -0.08700829 -0.041591588 0.99533898 0.003471964
0.84591007 0.22233891 0.026573509 7099472 -0.098579206 -0.019314939 0.99494177 0.0026486004
0.86576843 0.22488689 0.027943015 9074302 -0.11238142 -0.043373626 0.9927181 0.0019073781
0.88348001 0.22706717 0.028922975 11114915 -0.11262366 -0.058884777 0.99189138 0.0010710495
0.76668525 0.23113044 0.023625448 7232341 -0.13506314 -0.042797621 0.98991227 0.0067377975
0.77562463 0.23521876 0.021025091 8152668 -0.10958368 -0.01976575 0.99378103 0.0013523294
0.78900397 0.23409018 0.02122879 8021594 -0.097545214 -0.0092634754 0.99518794 0.0020155695
0.79590559 0.23618543 0.021979168 8152926 -0.1146368 0.0056962511 0.99339116 0.0057637412
0.80493045 0.2338123 0.022915222 8350046 -0.10624234 -0.019720562 0.99414468 0.0025681285
0.81484783 0.23045999 0.023935199 9073505 -0.14574848 -0.032272499 0.98879516 0.0019484606
0.82391602 0.234588 0.024870068 8218977 -0.11329539 -0.013600803 0.99346823 0.0036590649
0.83177817 0.23192191 0.025653809 8021596 -0.17664157 -0.024580605 0.98396826 0.0022660645
0.84652162 0.23527025 0.02777224 9140086 -0.094844304 -0.035456426 0.99486041 0.0023346851
0.85564446 0.23404112 0.027147949 10127239 -0.067536943 -0.081019141 0.99442178 0.0029665038
0.86532307 0.23421064 0.028248936 9863297 -0.10941324 -0.047642503 0.99285388 0.0018743107
0.87986207 0.2303742 0.029856294 10654100 -0.12694627 -0.040418044 0.99108577 0.0024110954
0.88400173 0.2351104 0.029541314 10916759 -0.10954735 -0.06919086 0.99157047 0.0011517726
0.75585055 0.24569608 0.020988777 6969422 -0.13501298 -0.036647204 0.99016589 0.0036677974
0.77539396 0.24421398 0.021583214 7889495 -0.096302398 -0.024728291 0.99504489 0.0031934129
0.78602546 0.24501415 0.023006164 8086878 -0.10227527 -0.018250125 0.99458879 0.0035186652
0.80633819 0.24461189 0.022359975 8284254 -0.10057049 -0.017100673 0.99478292 0.0033051618
0.81622213 0.24411964 0.025486847 8481634 -0.10765691 -0.0062043001 0.99416876 0.0030514095
0.82605255 0.24145681 0.025403954 8481376 -0.14369449 -0.014996237 0.98950851 0.0018012245
0.83825904 0.2425621 0.028035149 8284515 -0.14118269 -0.039583255 0.98919189 0.0037399859
0.8469184 0.24390867 0.029191524 9139568 -0.11616583 -0.033111855 0.99267775 0.0022416178
0.85666335 0.24974854 0.028355479 10061187 -0.080435753 -0.02660175 0.99640477 0.001014262
0.86648631 0.24031085 0.028839514 9929605 -0.088283382 -0.065843336 0.99391687 0.0018785
0.87024283 0.24838032 0.029566228 10653327 -0.10634998 -0.045092773 0.99330574 0.00086547027
0.88209879 0.248767 0.02963987 9601150 -0.13206162 -0.024388086 0.99094146 0.0021080954
0.7562114 0.25774404 0.02098681 6969420 -0.12346395 -0.029317444 0.99191594 0.0020877291
0.76588798 0.25584701 0.021490356 7626324 -0.090149634 -0.030309178 0.99546689 0.0027431317
0.77872998 0.25641042 0.02104494 8086362 -0.083244897 -0.025364855 0.99620628 0.0030659994
0.78849411 0.25778556 0.022989862 7823449 -0.083240151 -0.044669576 0.99552792 0.0032591335
0.7939021 0.25570574 0.023261223 8350048 -0.10082661 -0.016315926 0.99477023 0.0027600869
0.80556113 0.25484204 0.02319329 8481632 -0.11223821 -0.0085395519 0.99364465 0.0025661951
0.81802344 0.25432867 0.024202064 8941925 -0.10987949 -0.0052220793 0.99393123 0.0020267167
0.82472253 0.25301087 0.025873154 8415842 -0.13210204 -0.017012166 0.99109012 0.0021482105
0.83494198 0.25443822 0.027498238 8086879 -0.17117836 -0.035307534 0.98460722 0.0031178244
0.84408391 0.25485134 0.027606064 8942703 -0.10528053 -0.0098187681 0.99439406 0.0019693582
0.85502625 0.2585693 0.028914958 9731193 -0.10317717 0.0092194388 0.99462026 0.0019127729
0.86193204 0.25369298 0.029641882 9074805 -0.057229005 -0.024371682 0.99806356 0.001673724
0.74372172 0.26534164 0.020154692 7297613 -0.086546324 -0.026039759 0.99590749 0.001987529
0.75441551 0.26303649 0.021613926 7166286 -0.11303879 -0.039309431 0.99281269 0.0017825332
0.7696805 0.26540881 0.022412084 7823959 -0.10541718 -0.033570822 0.99386126 0.0030536833
0.78537017 0.26813883 0.022984952 8086620 -0.082115717 -0.0079409285 0.99659115 0.0033461533
0.79562938 0.26431853 0.021924928 8810085 -0.088473961 0.0063891783 0.99605799 0.0027321554
0.8050977 0.26421425 0.022998452 7955033 -0.1195761 -0.026228895 0.99247855 0.0038649072
0.81722927 0.265475 0.025175015 8744294 -0.13743928 0.0022588312 0.99050766 0.0019550724
0.82405448 0.26256445 0.025720606 8678503 -0.11047859 -0.0081184665 0.99384528 0.0024519891
0.83122683 0.26297265 0.026770189 8613222 -0.13519765 -0.0034745422 0.99081254 0.0020796109
0.84544247 0.26461852 0.027599195 9073776 -0.099822372 0.011963584 0.99493337 0.0019564668
0.85742748 0.26152909 0.029261172 9995649 -0.1129899 -0.017782569 0.99343699 0.0011688571
0.86931336 0.26999155 0.02745536 9009011 -0.079688996 4.6100467e-06 0.99681979 0.0017905472
0.87191504 0.26609105 0.029545695 10389124 -0.13370062 0.015240991 0.99090457 0.001807826
0.74791276 0.27404761 0.020049244 7034954 -0.12210867 0.004184444 0.99250793 0.0029185121
0.75320286 0.2714895 0.022083521 7231310 -0.12073785 -0.035650503 0.99204409 0.0015631517
0.76422793 0.27665734 0.021362295 7757910 -0.07951916 -0.018178586 0.99666756 0.0041936343
0.77336907 0.27461392 0.022247963 7560533 -0.075596295 -0.020350561 0.99693078 0.0034738514
0.78502673 0.27796662 0.023041293 8218206 -0.090091899 -0.012007079 0.99586105 0.003456993
0.79625827 0.27485082 0.021635056 8546914 -0.096252173 -0.014955788 0.99524456 0.0039218296
0.80515188 0.27291295 0.024523249 8217949 -0.092112534 -0.020576252 0.99553597 0.0030480598
0.81707215 0.27245805 0.02520097 8415841 -0.11447516 -0.0056073782 0.99341029 0.0029693102
0.83499938 0.27337492 0.02737987 8481895 -0.13233919 0.011479965 0.99113798 0.0030565565
0.84394884 0.27175397 0.029095545 8876654 -0.084887341 0.023043031 0.99612409 0.0017117939
0.85739571 0.27031556 0.029423267 9797755 -0.11695496 0.023293035 0.99286407 0.0019400775
0.86187565 0.27655792 0.028915204 9731965 -0.10356242 0.019901132 0.99442387 0.0016159634
0.89289272 0.27741447 0.029369593 10784400 -0.10398397 0.039485835 0.99379492 0.0031217516
0.74042284 0.28575909 0.02028361 6837321 -0.12413138 -0.013216686 0.99217778 0.0019309272
0.75693303 0.28183985 0.020982876 7297104 -0.11035182 -0.020972611 0.9936713 0.0032911117
0.76315224 0.28632921 0.022991918 7691863 -0.089974716 -0.0077370228 0.99591398 0.0043112822
0.77432913 0.28019783 0.020901948 8481119 -0.072008826 -0.064754121 0.99529982 0.0050701122
0.78471321 0.28516257 0.02322354 8744294 -0.082524195 -0.066680454 0.9943558 0.0045283269
0.79510093 0.28382427 0.024656162 7954779 -0.086644299 -0.021557201 0.99600607 0.0032491197
0.80098569 0.28572017 0.021647349 8875622 -0.10160088 -0.057043798 0.99318844 0.0051165055
0.81296599 0.28227124 0.023373656 8481121 -0.10431642 -0.0052406075 0.99453032 0.0033591271
0.82405955 0.28413653 0.025623985 8612710 -0.10594823 -0.025702471 0.99403942 0.0036461595
0.83528984 0.28308922 0.026359133 8876652 -0.11528321 0.014107956 0.99323243 0.0022094529
0.84541273 0.28237924 0.029342949 9533555 -0.079538114 -0.012919823 0.99674815 0.0021002404
0.85034037 0.28077829 0.026964888 9008495 -0.089567319 0.027823038 0.99559206 0.0015768458
0.86373407 0.28763404 0.029124329 9666170 -0.099481732 0.026247747 0.99469316 0.0021280737
0.89341789 0.28551078 0.029992044 10784400 -0.10008127 0.030578399 0.99450928 0.0032992845
0.7552253 0.29007578 0.021609515 7297618 -0.10194439 -0.012697313 0.99470907 0.0034007118
0.76514959 0.29512101 0.023464195 7955034 -0.087792225 -0.026861146 0.99577659 0.0043113958
0.78600323 0.29473609 0.022850316 8283488 -0.099145874 -0.037078138 0.99438184 0.0037107482
0.79650277 0.29436073 0.023525834 8612964 -0.093061082 -0.065532841 0.99350142 0.0042571877
0.80551291 0.29216009 0.02424299 7955038 -0.082823865 -0.034353547 0.99597186 0.0035840459
0.81638098 0.29435155 0.025070364 8546916 -0.081515096 -0.039901342 0.99587303 0.0036253699
0.8253485 0.29316741 0.025148019 9204846 -0.092749745 -0.046668448 0.99459517 0.0032871119
0.83753008 0.29431576 0.0260913 8810347 -0.10162032 0.00017901567 0.99482322 0.0028627911
0.84943998 0.29140344 0.028149813 8548201 -0.093026176 0.0083291288 0.99562883 0.002985711
0.85161901 0.29430154 0.02763488 9665656 -0.081283942 -0.0047767954 0.99667954 0.0022033742
0.86566776 0.2971082 0.028741851 10125953 -0.096359335 0.013247552 0.99525845 0.0022695558
0.87960643 0.29830056 0.02993089 10455949 -0.087209471 0.017935539 0.99602854 0.0031115299
0.73114055 0.30202368 0.020146936 8152152 -0.080372222 -0.062137481 0.99482626 0.0035541216
0.74279964 0.30569258 0.020260878 7691861 -0.095890224 -0.045200985 0.9943651 0.0028775181
0.75099921 0.30364311 0.023216372 8283742 -0.092785254 -0.050304923 0.99441451 0.0032206427
0.7687518 0.30703133 0.022357911 8283742 -0.082737185 -0.041037366 0.99572611 0.004919467
0.7780298 0.30450612 0.021887615 8612707 -0.089249015 -0.052135564 0.99464393 0.0042864345
0.78606373 0.30356774 0.024459705 8678501 -0.10523227 -0.042605311 0.99353456 0.0047891061
0.79533291 0.30291712 0.025003262 8020828 -0.099977732 -0.060481392 0.99314982 0.0027010988
0.80371249 0.30295968 0.025287248 8810085 -0.08137913 -0.059549719 0.99490261 0.0038817858
0.81388831 0.30627152 0.027924826 8415588 -0.077305466 -0.058772765 0.99527365 0.0030863627
0.82585078 0.30432454 0.024944216 8876138 -0.088765994 -0.041606188 0.99518317 0.0031862385
0.83701402 0.30349982 0.027518937 9073775 -0.076154619 -0.048026316 0.99593878 0.0028454056
0.84154797 0.30403522 0.028091945 8152930 -0.093120962 -0.039619762 0.99486625 0.0041140122
0.85429913 0.30410779 0.026661774 9403000 -0.10001705 -0.0050426712 0.99497288 0.0022954594
0.86872059 0.30589512 0.028655037 9599866 -0.10869981 -0.035811871 0.99342936 0.0027616229
0.87071186 0.30191103 0.027971327 8943218 -0.10844076 -0.028361887 0.99369824 0.0021351394
0.89716512 0.30266646 0.02984345 10719121 -0.11152605 -0.028210239 0.99336106 0.0034047454
0.73509175 0.31970614 0.022368371 7362897 -0.094975904 -0.064208448 0.99340671 0.0017871603
0.74076706 0.31355798 0.020439863 7231311 -0.078233466 -0.063770629 0.99489337 0.0023466663
0.75266451 0.31599337 0.022419214 8152157 -0.10023223 -0.032464549 0.9944343 0.0036752271
0.76623559 0.31624886 0.021682421 8546913 -0.079949155 -0.018066058 0.99663514 0.0032440915
0.77630895 0.31447655 0.022953203 8217692 -0.095467046 -0.046462078 0.99434763 0.0028989303
0.78610951 0.31436691 0.025186706 8217695 -0.10678473 -0.056320634 0.99268579 0.0036993874
0.79291183 0.31752133 0.025060972 8678502 -0.10790303 -0.025713051 0.99382889 0.0030461696
0.80286324 0.31417975 0.02512718 8546915 -0.090265721 -0.032698866 0.99538076 0.0034411331
0.81461763 0.31439584 0.027199455 8678758 -0.084938198 -0.036722094 0.9957093 0.0030395517
0.82398826 0.31334126 0.029411107 9401967 -0.081745006 -0.091558784 0.99243879 0.0020096502
0.83220124 0.31560791 0.02610828 8744810 -0.099235691 -0.035858814 0.99441761 0.0034039267
0.84395623 0.3112691 0.0283117 9534329 -0.058427908 -0.038782634 0.99753803 0.0026795063
0.85035175 0.312215 0.028486222 8613994 -0.10053845 -0.05893987 0.99318582 0.0029949185
0.86886358 0.3141332 0.02904143 10192004 -0.10231467 -0.038053319 0.99402398 0.0027795129
0.718027 0.32080799 0.020329714 8283995 -0.07569015 -0.03164427 0.99662912 0.0025146848
0.72406793 0.32469067 0.020407356 7823445 -0.089792088 -0.033706289 0.99539 0.0031582222
0.73566282 0.32965285 0.02129899 8151897 -0.079092227 -0.024715399 0.99656087 0.0030514202
0.74963981 0.32934865 0.023045301 8810084 -0.096565999 -0.011336879 0.99526203 0.0036588286
0.75342339 0.32590675 0.021550413 8020571 -0.090153173 -0.048556451 0.99474353 0.0031914671
0.76698971 0.3258611 0.022688918 8415072 -0.087309204 -0.033184994 0.99562842 0.0027882247
0.77516145 0.32376274 0.023544231 7888986 -0.10712929 -0.043041985 0.99331301 0.0026769724
0.78510571 0.32667655 0.022844225 8481381 -0.085711963 -0.026752522 0.99596077 0.0038286331
0.79271001 0.32520744 0.025692075 8678503 -0.098112509 -0.030034376 0.99472207 0.0032245461
0.80560946 0.32643506 0.024734059 8809831 -0.094056278 -0.024921609 0.99525493 0.0031687405
0.81669372 0.32381132 0.026496768 8941674 -0.096994817 -0.03799488 0.99455941 0.0030491117
0.82761359 0.32303405 0.027862892 9402225 -0.086448163 -0.034043949 0.99567455 0.0035907815
0.83484906 0.32369092 0.027502209 8284518 -0.081943452 -0.068931192 0.99425042 0.0032160447
0.84497279 0.32606834 0.027811617 9205107 -0.086239934 -0.03320054 0.99572104 0.0028781667
0.85482508 0.32205111 0.027726308 9139828 -0.086800657 -0.043680359 0.99526763 0.0026481072
0.86955714 0.32753405 0.029806852 10323079 -0.089603633 -0.047532406 0.99484265 0.0013390136
0.72035295 0.33303601 0.021473661 7100750 -0.12256989 -0.010893619 0.99240011 0.0030954888
0.73751032 0.33524439 0.021722667 7362898 -0.096479721 -0.021864023 0.99509478 0.00256105
0.74824107 0.33422172 0.024271205 7691606 -0.084027208 -0.010559121 0.99640751 0.0024862047
0.75835055 0.33649558 0.023901671 8941670 -0.098255739 -0.028753093 0.99474579 0.003277757
0.76683795 0.33511734 0.022578791 7823449 -0.10837227 -0.040561732 0.99328256 0.0023825681
0.77361315 0.33525801 0.023939312 8415329 -0.096086927 -0.043520417 0.99442112 0.0031330762
0.78381222 0.33365723 0.023941256 8875623 -0.083077401 -0.046855591 0.99544096 0.0032218606
0.79344422 0.33199626 0.024207011 9138541 -0.10262376 -0.037720419 0.99400479 0.0026515189
0.80505258 0.33575627 0.024733802 8810089 -0.095458902 -0.036606826 0.99475998 0.0034420006
0.81573921 0.33284819 0.028588235 8875881 -0.11235841 -0.043556768 0.99271262 0.0039635003
0.82368231 0.33401 0.026650757 8875881 -0.076242954 -0.034084156 0.99650651 0.0034049693
0.83307183 0.33179611 0.026835248 8679018 -0.09309642 -0.038890954 0.99489725 0.0029503005
0.84410077 0.33706987 0.028823212 9599608 -0.06352675 -0.058456235 0.99626666 0.0039069843
0.8578096 0.33634293 0.028508127 9928321 -0.085510932 -0.040028837 0.99553287 0.0010787244
0.71820474 0.3420642 0.021374211 7823703 -0.088519141 0.01731756 0.995924 0.0034232393
0.74999529 0.34385198 0.023798645 7691864 -0.081703305 -0.0034967682 0.99665058 0.0022235466
0.75103629 0.34334147 0.021363676 8480863 -0.11885966 -0.023037709 0.99264377 0.0028508494
0.76320732 0.34622043 0.022700869 8481122 -0.10658009 -0.041182689 0.99345088 0.0028538536
0.77655125 0.34667936 0.02283003 8612708 -0.099159449 -0.05203272 0.99371028 0.0027656602
0.78283715 0.34594622 0.026068902 8349280 -0.11157073 -0.034857854 0.99314499 0.0035438556
0.79365098 0.34454444 0.025885463 8678245 -0.093702555 -0.03970746 0.99480814 0.0040080072
0.80585223 0.34227115 0.025680874 8547172 -0.086475216 -0.028451456 0.9958477 0.0041022934
0.81658942 0.34309688 0.028830668 8678246 -0.07782986 -0.025926549 0.99662948 0.0048766485
0.82029462 0.34167963 0.024671435 9336947 -0.1036661 -0.076761931 0.99164557 0.00249349
0.83281851 0.34042948 0.027481243 8876140 -0.10382756 -0.029880602 0.99414635 0.0026579173
0.84655118 0.34202513 0.02943632 9730935 -0.048740663 -0.07435973 0.99603969 0.0054115127
0.85317284 0.34404513 0.028464466 8744552 -0.094917886 -0.040503576 0.99466079 0.0021866884
0.87353021 0.34845415 0.029905617 10323079 -0.11359479 -0.019256983 0.99334055 0.0039750165
0.71353257 0.35877025 0.020094991 8547170 -0.11389509 -0.049495757 0.99225909 0.0050552706
0.72392738 0.35462719 0.02048263 7428690 -0.12764527 0.041655924 0.9909448 0.0038842545
0.73503429 0.35282594 0.021249138 7494997 -0.10782928 0.020558875 0.99395686 0.00273593
0.74064559 0.35107991 0.021915853 8744037 -0.12994008 -0.0056933318 0.9915055 0.0037046231
0.75333154 0.35407212 0.022150382 8086364 -0.12647243 -0.0069064787 0.9919461 0.0029464201
0.7649523 0.355968 0.024228256 8217950 -0.12677854 -0.023228707 0.99165899 0.0028063662
0.77486622 0.35650256 0.024924448 8415329 -0.10862065 -0.036754813 0.99340349 0.0028129187
0.78490639 0.35608673 0.024470523 9335919 -0.080627158 -0.053321172 0.9953171 0.0017142007
0.79296958 0.35410297 0.027308768 8612709 -0.091988474 -0.0392798 0.99498504 0.0043413448
0.80638057 0.35298529 0.026458263 9007724 -0.08887957 -0.026353896 0.99569368 0.0040981215
0.81833196 0.35120356 0.027497992 8941675 -0.087069556 -0.045345608 0.9951697 0.0030943817
0.82102764 0.3558065 0.029432446 9665142 -0.068842478 -0.00065933174 0.99762738 0.0053580725
0.83414137 0.35160524 0.027737126 8810860 -0.095150866 -0.036086291 0.99480855 0.0024484824
0.84572321 0.3522872 0.028422415 9666173 -0.070252128 -0.037103336 0.99683899 0.0018874328
0.8534773 0.35099372 0.028576821 8744297 -0.091918603 -0.04473874 0.99476099 0.0019515686
0.86042255 0.35653022 0.029294789 10191493 -0.064326979 -0.0022343697 0.99792641 0.0012905473
0.70710629 0.36297536 0.020467252 7166288 -0.11094603 0.048163082 0.99265873 0.00448308
0.72526985 0.36494356 0.020333104 8086621 -0.10466829 0.011281431 0.99444318 0.0046767816
0.73670006 0.36247396 0.020947048 7889497 -0.10350564 0.0059913774 0.99461085 0.0030278855
0.74691468 0.36327061 0.022690808 8481123 -0.10212158 -0.010949949 0.99471164 0.0029997462
0.75338316 0.36600053 0.022820424 8415071 -0.1408114 -0.0013359307 0.99003553 0.0028777556
0.76279885 0.36513507 0.023481011 8744037 -0.10639007 -0.027575493 0.99394202 0.0028621189
0.77528054 0.36503339 0.025201321 8349537 -0.10175405 -0.036902994 0.99412483 0.0032697099
0.78648651 0.36552727 0.024769917 9270384 -0.070232429 -0.04596876 0.99647093 0.0015779582
0.79422295 0.36554107 0.026889503 8875624 -0.066523872 -0.011306854 0.99772078 0.0030657025
0.80343872 0.36601174 0.025647869 8547174 -0.10055288 -0.026767733 0.99457157 0.0048143235
0.81491685 0.36375198 0.028711766 9073004 -0.087919928 -0.026826954 0.99576622 0.0060930089
0.82282066 0.36241388 0.027113318 9204847 -0.084704764 -0.033919372 0.99582863 0.0041667516
0.83607161 0.36306852 0.027521506 9073262 -0.081484728 -0.017679971 0.99651778 0.0022183163
0.84781551 0.36451954 0.028587013 9928575 -0.057018477 -0.021440363 0.9981429 0.0015246666
0.85247928 0.36077544 0.029271185 8745068 -0.109404 -0.046716567 0.992899 0.0020885395
0.86252892 0.3689093 0.029481173 10257541 -0.064766623 -0.033361875 0.99734265 0.0017912611
0.87840796 0.36987865 0.029540002 10454665 -0.14269702 -0.0089447433 0.98972601 0.0045079943
0.72359717 0.37137374 0.021030724 8678498 -0.10656911 -0.0043962896 0.9942956 0.0023105633
0.73693442 0.37417477 0.021283031 8152668 -0.10310671 8.5659827e-05 0.99467033 0.0026872144
0.74470317 0.3743909 0.020733975 8152670 -0.10775291 0.012411738 0.99410027 0.0031360888
0.75421894 0.37698373 0.022231884 8481123 -0.12757619 -0.0012034151 0.99182802 0.0030360431
0.76377988 0.37633136 0.023317032 8875625 -0.11777427 -0.02335209 0.99276578 0.003012896
0.77554935 0.37411004 0.025979102 8284256 -0.10314939 -0.0007634841 0.99466562 0.0027627186
0.78476936 0.37598419 0.025863305 9270384 -0.081538998 -0.03190919 0.9961592 0.0013796841
0.79156893 0.37185758 0.025196671 8152413 -0.080678172 -0.013101501 0.99665409 0.0051672175
0.80340648 0.37599432 0.026671346 8810089 -0.096137069 -0.013661526 0.99527442 0.0035190219
0.81339812 0.37491381 0.02863428 9664371 -0.083608836 -0.035637856 0.99586123 0.0040246961
0.82323343 0.37421319 0.027951727 9205105 -0.091744147 -0.032852534 0.99524057 0.0045217625
0.83557594 0.37158349 0.028257504 9007982 -0.08362221 -0.044296663 0.99551255 0.0023698988
0.72523892 0.38121507 0.020823479 8020827 -0.12536921 0.035844389 0.99146241 0.0047408682
0.73942095 0.38822016 0.022292137 8941418 -0.068958081 -0.042042684 0.99673331 0.004043459
0.74549037 0.38381362 0.021190638 8350048 -0.12276772 0.017773557 0.99227631 0.0041477685
0.7528953 0.38655207 0.022707244 8218207 -0.13423365 -0.0071895244 0.99092358 0.003071757
0.76444376 0.38545895 0.024299078 8481123 -0.13771434 0.0026335202 0.9904685 0.002269214
0.77442002 0.38595134 0.024487987 8546915 -0.096017286 0.00861046 0.99534243 0.0032040603
0.78482586 0.38752699 0.026884124 9401971 -0.083210245 -0.036543928 0.99586177 0.0018196563
0.7971859 0.38465443 0.026145017 8547175 -0.10242851 -0.0072478084 0.9947139 0.0034555793
0.80393779 0.3847281 0.027559787 8941674 -0.083033502 -0.026307931 0.99619943 0.0030201115
0.81452388 0.38435373 0.027201876 9270641 -0.089483552 -0.04830103 0.99481636 0.0034709193
0.82167268 0.3828063 0.028630018 9665403 -0.07571543 -0.056502048 0.99552733 0.0037608224
0.83641481 0.38302031 0.028659433 9270899 -0.093919925 -0.053402789 0.99414641 0.0028269945
0.86463684 0.38131118 0.029669285 10257540 -0.067399077 -0.048063077 0.99656773 0.0014509473
0.72292137 0.39562693 0.020260811 8152413 -0.11642145 -0.0072756591 0.9931733 0.0038661105
0.73568296 0.39392194 0.021990141 8613476 -0.086559571 -0.026111307 0.99590445 0.0045512174
0.74306202 0.39018649 0.020427346 7626070 -0.12911811 0.018386727 0.99145877 0.0030524486
0.75508249 0.39722657 0.022562265 8810343 -0.12022835 0.001729134 0.9927448 0.0039401185
0.76674491 0.39428544 0.024125198 8744295 -0.13183917 0.0093950732 0.99122667 0.0030130567
0.77793807 0.3952339 0.025599739 8284258 -0.11472207 -0.012006297 0.99332511 0.0031609617
0.78714681 0.3955867 0.026508972 9336435 -0.090185806 -0.043662261 0.9949674 0.0024034658
0.79628861 0.3932671 0.023992956 8218978 -0.10445218 0.002083933 0.99452776 0.0035662388
0.80360383 0.39450717 0.028036019 9073262 -0.093842894 -0.040185753 0.99477559 0.0027612986
0.81873262 0.39561859 0.028889894 9073517 -0.11818105 -0.045627333 0.99194324 0.0026794747
0.82241023 0.39417744 0.02950424 9730683 -0.067640357 -0.047685914 0.99656957 0.0036378414
0.85091841 0.39233044 0.029949248 9993855 -0.050936371 -0.06403394 0.996647 0.0019608734
0.71924084 0.40827951 0.022117853 8745062 -0.072631754 -0.092608511 0.99305004 0.0039524143
0.72910386 0.40163708 0.022692442 8875623 -0.056541175 -0.075954944 0.99550688 0.00478944
0.73162919 0.40388376 0.020964652 8745061 -0.12520759 0.046282236 0.99105048 0.0038539597
0.74309444 0.40364212 0.021159302 8547686 -0.10168777 -0.03619856 0.99415761 0.0040600738
0.75459683 0.40609598 0.023047984 8613222 -0.11291432 -0.021238452 0.99337775 0.0033821915
0.76623756 0.4054884 0.023141196 8810088 -0.14049897 0.0038869418 0.9900732 0.0031106931
0.77418005 0.40518725 0.025084946 8218462 -0.1175776 0.015119169 0.99294859 0.0024685345
0.78467649 0.40605929 0.026052684 9336690 -0.11089483 -0.017720586 0.99367422 0.0012879083
0.79701662 0.40368748 0.027179576 8810603 -0.10269691 -0.0093518374 0.99466872 0.003065391
0.80649197 0.40409455 0.027159363 8218978 -0.13657293 0.0026938133 0.99062639 0.0031325181
0.81240988 0.40600845 0.02824086 9599607 -0.070261694 -0.05047027 0.99625105 0.0028801574
0.8219617 0.40468454 0.028060317 8416102 -0.11708722 -0.018004276 0.99295843 0.0028039441
0.838144 0.40337494 0.029889345 9862782 -0.069031209 -0.042273432 0.99671847 0.0022293788
0.71334797 0.41845074 0.022053123 8744551 -0.10228569 -0.037836172 0.99403524 0.0028452552
0.7329976 0.41395298 0.021534035 8810342 -0.093488976 -0.050586194 0.9943344 0.0042588995
0.74394619 0.41492528 0.022382006 8942186 -0.092985958 -0.036921434 0.9949826 0.0034463312
0.75630844 0.41604277 0.023427702 8481634 -0.12841184 -0.0087687774 0.99168217 0.0024452219
0.76629472 0.4162468 0.025187477 8350304 -0.13653402 0.021499423 0.9904021 0.0019786183
0.77562141 0.41499901 0.023107529 8152413 -0.14507918 0.050538536 0.98812848 0.003835076
0.78285819 0.41592798 0.027003773 8613222 -0.1243785 -0.00021102684 0.99223483 0.0016064898
0.79668665 0.41487062 0.027817449 9073518 -0.12382906 -0.016443163 0.99216729 0.0024985031
0.80404711 0.41462407 0.027129909 8152929 -0.13756712 0.0092531135 0.99044919 0.0041523501
0.81900597 0.41297445 0.029498011 8350564 -0.12816606 0.017880412 0.99159151 0.003836046
0.82739395 0.41136059 0.028434634 9665145 -0.086510606 -0.04389783 0.99528337 0.0025568593
0.84131795 0.41239983 0.029010415 9862269 -0.077234834 -0.071708769 0.99443084 0.0026811888
0.85621715 0.4135313 0.029587716 8482410 -0.10507488 -0.053819727 0.99300694 0.0035627589
0.71772981 0.42907932 0.022996366 8876393 -0.13283901 -0.056088619 0.98954934 0.0028250695
0.73546124 0.42618057 0.021778455 8745061 -0.13904768 0.016686205 0.99014515 0.003986537
0.74458051 0.42354357 0.023140699 8942186 -0.10248727 -0.036776997 0.9940542 0.0030468237
0.75235516 0.42717949 0.02663213 9205103 -0.080677181 -0.092779607 0.99241281 0.0030272291
0.76635641 0.42625338 0.02431646 8876392 -0.10549302 -0.028704276 0.99400568 0.0022748171
0.77410543 0.4201889 0.023885027 8613220 -0.14405623 0.037306681 0.98886603 0.0024729872
0.78537202 0.4261888 0.025571862 8942188 -0.12970865 -0.0028832229 0.99154794 0.0021677529
0.79684973 0.42465138 0.028186604 8482149 -0.1425128 0.0017734516 0.98979133 0.0035605787
0.80115992 0.42404833 0.028671741 9533814 -0.088765651 -0.060957327 0.99418557 0.0031716109
0.81567794 0.42421842 0.028170794 8612711 -0.12405691 -0.0048613655 0.99226314 0.0037310258
0.73396581 0.43795729 0.023722529 8745322 -0.11058626 -0.010516942 0.99381089 0.0038117713
0.7458182 0.43410349 0.023816511 8942699 -0.11183345 0.0049585728 0.99371457 0.0030623763
0.75873882 0.43336299 0.0227622 8810342 -0.16040008 0.063271277 0.98502219 0.0023524305
0.76123649 0.43798104 0.026201904 9204847 -0.074914366 -0.062234752 0.99524605 0.0029111733
0.77552056 0.43460596 0.024684682 8876393 -0.13067582 0.008162708 0.99139154 0.0019590803
0.78477842 0.4327051 0.02474457 8021339 -0.11403681 0.0060309297 0.99345821 0.0021451944
0.79242224 0.43546003 0.026991159 9205104 -0.11617451 -0.011717482 0.99315971 0.0036982098
0.80113113 0.43690237 0.028716773 8876396 -0.10884465 -0.038150426 0.99332643 0.005176866
0.814152 0.43313569 0.027428493 9007468 -0.1261218 -0.025218014 0.99169415 0.0039078491
0.83880663 0.4356969 0.029677734 8416355 -0.11484709 0.041162264 0.99252999 0.0051064058
0.71388966 0.44528058 0.022199303 8810857 -0.15140618 0.025953209 0.98813087 0.0037351407
0.72320694 0.44376203 0.023656934 8876649 -0.1332517 0.0037106995 0.99107528 0.0038868506
0.73551452 0.44895473 0.023980618 8811115 -0.14312664 0.030646592 0.9892298 0.0042533237
0.74591345 0.44953594 0.025264859 9074287 -0.10348097 -0.0012436883 0.99463063 0.0016210426
0.75411648 0.44471273 0.024137 9008236 -0.13329747 0.046896759 0.98996592 0.001614289
0.76639485 0.44327506 0.027641654 9270383 -0.057614546 -0.050896138 0.99704069 0.0024015973
0.77632314 0.44189203 0.024963096 8744295 -0.12098102 -0.012061309 0.99258155 0.0027733454
0.78346682 0.44435549 0.025156686 8810345 -0.14771795 0.056061357 0.98743945 0.0021357711
0.79316449 0.44466791 0.027593473 9073774 -0.13194329 0.0054386347 0.99124241 0.0036222034
0.80502176 0.44410226 0.028577507 9533813 -0.092155993 -0.104308 0.9902662 0.0047936812
0.81446457 0.44450542 0.027041772 8810342 -0.12668271 0.0673232 0.98965603 0.0038495653
0.82177895 0.44380048 0.029437602 8416357 -0.12244887 0.07543046 0.98960423 0.0046686172
0.70569718 0.45064977 0.020541549 8810087 -0.15408863 0.043683674 0.98709095 0.0041612186
0.72540396 0.45838681 0.023889661 9139052 -0.11853523 0.058349196 0.991234 0.0036247321
0.73706418 0.45996729 0.024239838 9007722 -0.16134851 0.061412226 0.98498487 0.0030980404
0.74811685 0.45765641 0.024728417 9139308 -0.11177463 0.026247056 0.99338692 0.0024768112
0.75507236 0.45609644 0.028281808 9270895 -0.11395341 0.030013196 0.99303263 0.0026157326
0.76749676 0.45583215 0.026109606 9139565 -0.12615651 0.020495996 0.99179852 0.0028566902
0.77579367 0.45530444 0.023959234 8942698 -0.16877836 0.072664849 0.98297191 0.0019721931
0.7857939 0.45679709 0.027685389 9270897 -0.12865013 -0.012459852 0.99161178 0.0043189405
0.80486923 0.45400104 0.025839671 8810856 -0.13926598 0.071436033 0.98767495 0.0029109942
0.81520134 0.45187086 0.027984686 8218719 -0.12339776 0.067771412 0.99004042 0.0043620979
0.82401568 0.45156682 0.02881816 8416357 -0.1260656 0.060160283 0.99019605 0.004544924
0.83925253 0.45655632 0.029999286 8218976 -0.13238494 0.058630321 0.98946291 0.0041654012
0.84232199 0.45090759 0.028828651 8350564 -0.1449585 0.057134338 0.98778677 0.0027129631
0.70830297 0.46534872 0.020454675 8810342 -0.1446282 0.077970155 0.98640931 0.0045789527
0.73751754 0.46695682 0.024777174 9007722 -0.15799326 0.054663301 0.98592597 0.00367335
0.74857521 0.46472171 0.025271595 9074285 -0.13130371 0.043290067 0.99039656 0.0020554503
0.75854695 0.46523774 0.023881793 9074540 -0.14938211 0.075333536 0.98590559 0.0018439322
0.76941454 0.46780267 0.025375679 9074030 -0.14306189 0.065239519 0.98756117 0.0024245698
0.77991807 0.46756595 0.02328977 8877415 -0.19963986 0.093757004 0.97537357 0.0018131197
0.78648615 0.46566325 0.028516605 9271410 -0.15822278 0.018369859 0.98723251 0.0047268765
0.79669148 0.46571374 0.028271923 9402994 -0.12275139 0.026294306 0.99208909 0.0042245057
0.80987293 0.46565264 0.028621733 9468527 -0.12766723 0.048040465 0.99065292 0.0029684582
0.81477213 0.46341994 0.025838584 8218975 -0.12148962 0.035658415 0.991952 0.00335228
0.83111542 0.46211159 0.026381344 8284769 -0.12216163 0.038576569 0.99176025 0.0036006665
0.84144497 0.46428651 0.029445946 8218978 -0.13373499 0.062415559 0.98904967 0.0042765881
0.7291159 0.47070384 0.022756159 9139310 -0.14643711 0.057928339 0.98752242 0.0036590793
0.73130393 0.47877428 0.022187769 9139308 -0.15137558 0.052177247 0.98709828 0.0035763609
0.74058563 0.47562233 0.023681223 9073515 -0.14995307 0.054541163 0.98718762 0.002834125
0.75276029 0.47754005 0.023935556 9205614 -0.13806696 0.067114763 0.98814636 0.0017233989
0.76101601 0.47499603 0.023644939 9074539 -0.16472253 0.08835534 0.98237461 0.0016769047
0.77598959 0.47676241 0.025022253 9008236 -0.15316305 0.068147466 0.98584837 0.0032043832
0.79578006 0.47722888 0.026941687 9403250 -0.15824069 0.075417668 0.9845162 0.0039969324
0.8132751 0.47440049 0.027927667 9403248 -0.12365197 0.064454399 0.9902302 0.0025450562
0.83009958 0.47139046 0.027090043 8416356 -0.14139196 0.027192585 0.98958015 0.0021702428
0.8414219 0.47371408 0.029927284 8482148 -0.14347158 0.037673283 0.98893714 0.0020350651
0.72337657 0.48926705 0.020769536 8876908 -0.16556226 0.054057982 0.98471665 0.0032366356
0.74012953 0.48733702 0.022625625 9073771 -0.14742737 0.065858267 0.98687786 0.0018486865
0.75432545 0.48874527 0.024216592 9336687 -0.12845322 0.06697467 0.98945147 0.0018797624
0.76107287 0.4837437 0.027540565 9205871 -0.17386866 0.050349824 0.98348087 0.0017245429
0.77465773 0.48619288 0.024473295 9074283 -0.17021821 0.081647158 0.98201811 0.0026868572
0.79426867 0.48734629 0.025429696 9599859 -0.16755538 0.10134836 0.98063946 0.0033219627
0.80777353 0.48676363 0.025048465 9468527 -0.13313805 0.10170014 0.98586583 0.0030130653
0.81389809 0.48153383 0.02868095 9403248 -0.12013911 0.070187606 0.99027288 0.0027074679
0.84265983 0.48727208 0.028957397 9599861 -0.12841968 0.044514779 0.99072039 0.0054115094
0.73220581 0.49267748 0.0232566 9007976 -0.17477947 0.059983194 0.98277879 0.002848316
0.74631548 0.49956611 0.022585034 9008490 -0.15072313 0.072843798 0.9858886 0.0024836333
0.75478619 0.49584845 0.02476269 9140080 -0.14811152 0.045240216 0.98793542 0.0035965552
0.76417029 0.49257925 0.026499748 9205103 -0.16560753 0.056950841 0.98454601 0.003185509
0.77582556 0.4975296 0.027848363 9140337 -0.15789524 0.060430408 0.98560506 0.0034833387
0.78806925 0.49402189 0.025117114 9271409 -0.16906087 0.081107162 0.98226267 0.0031907146
0.79487985 0.49434376 0.026168585 9599859 -0.16662857 0.11306923 0.97951531 0.003441189
0.80561304 0.49215129 0.027257144 9468527 -0.1451643 0.10534901 0.98378301 0.0028488638
0.82394934 0.49325541 0.028571755 9599858 -0.14156362 0.079714432 0.98671442 0.0035700221
0.73526824 0.50139827 0.022143841 9007974 -0.1570726 0.06870833 0.98519415 0.0020382167
0.74851978 0.50779432 0.022042811 9008490 -0.15515447 0.07736285 0.98485637 0.003307513
0.76603401 0.50644183 0.024769723 9139565 -0.16019516 0.065580294 0.98490441 0.003402947
0.77453196 0.50362605 0.029449642 9074798 -0.16076432 0.075212404 0.98412293 0.0033092781
0.78842509 0.50302875 0.028820097 9468790 -0.16746569 0.064318016 0.98377764 0.0034833043
0.81086785 0.50210851 0.025575727 9402734 -0.12069471 0.081570491 0.98933268 0.0027795297
0.82382005 0.50451988 0.026254922 9534320 -0.13766058 0.053331811 0.98904264 0.003645478
0.83216113 0.50397331 0.029457122 9600113 -0.14812119 0.05450147 0.98746634 0.0034823956
0.84580708 0.50306404 0.029575735 9599859 -0.15765567 0.054965679 0.98596323 0.0042158645
0.76009041 0.5129962 0.023179173 9271664 -0.15040414 0.0705887 0.98610133 0.0033270242
0.77468276 0.51539004 0.026443988 9205358 -0.16561541 0.057614628 0.98450601 0.0028673357
0.79179215 0.51573747 0.028119147 9468787 -0.16544363 0.039088592 0.98544431 0.0032552772
0.8346585 0.51237726 0.029280633 9403250 -0.14550075 0.055157259 0.98781943 0.0038162277
0.77988201 0.52100909 0.02795434 9205873 -0.17441501 0.047601841 0.98352098 0.0029273275
0.79250687 0.52675617 0.028966248 9402997 -0.15949322 0.051274147 0.98586661 0.003017951
1.2203147 -0.8259486 0.038805306 12825799 -0.074310333 -0.0047018379 0.99722409 0.0032162643
1.2210013 -0.81536579 0.039618909 14866144 -0.079155214 -0.02554727 0.99653494 0.0035840047
1.190405 -0.80920851 0.039080083 14668256 -0.091806561 -0.027173653 0.99540603 0.0048853597
1.1716454 -0.79923797 0.035378575 14275298 -0.10598869 -0.030462617 0.9939006 0.004905601
1.1910777 -0.79883796 0.039877355 14471649 -0.066809446 -0.0024095103 0.99776286 0.0054554068
1.22791 -0.79743677 0.039157093 14604005 -0.055102102 -0.020024231 0.99827993 0.0033643944
1.1438608 -0.78369081 0.035607904 14011615 -0.13964109 -0.0029780122 0.99019772 0.0045646266
1.1677321 -0.78622299 0.037982821 14340833 -0.12891433 0.0042146966 0.99164677 0.0052554216
1.233215 -0.78946787 0.038236201 14603235 -0.071740545 -0.0036571701 0.99741668 0.0031936192
1.1216877 -0.7715373 0.033932596 14143201 -0.11194688 0.024939045 0.99340117 0.0032659986
1.1567068 -0.77573317 0.031958967 14208476 -0.11854088 0.017890237 0.99278802 0.005879702
1.1729751 -0.77873945 0.036954463 14405856 -0.1112938 0.01279314 0.99370521 0.0066505899
1.1268778 -0.76439506 0.032807827 14076891 -0.12374119 0.014439114 0.99220949 0.0043471055
1.1690569 -0.76580036 0.039552867 14340063 -0.14174961 0.010887557 0.98984265 0.0057043619
1.1320729 -0.75717717 0.031688958 14011098 -0.12269698 0.027000118 0.99207687 0.004937469
1.154953 -0.75890684 0.034235775 14076891 -0.10174137 0.035214499 0.99418741 0.0056020706
1.1850629 -0.75374258 0.035348177 14142682 -0.11722997 0.027936786 0.99271178 0.0060776081
1.2100998 -0.75575668 0.037856221 14208477 -0.041671816 -0.010058762 0.99908078 0.0037929867
1.1099701 -0.74534869 0.03019917 13945305 -0.064577639 0.026531294 0.99755991 0.0016822827
1.1327201 -0.74720079 0.032455891 13945305 -0.088633426 0.010509067 0.99600887 0.0028527481
1.1556098 -0.74877888 0.035014391 14076889 -0.12161325 0.016052933 0.99244779 0.0052836533
1.1811429 -0.74083394 0.037944227 14142682 -0.11865411 -0.0063246419 0.99291551 0.0047625885
1.0389383 -0.73847979 0.037641406 13615566 -0.088344343 0.026450487 0.99573874 0.0017272653
1.1379225 -0.73986912 0.031345725 13879512 -0.12294617 0.045361489 0.9913761 0.0023901227
1.1562669 -0.73865098 0.035793006 14011096 -0.1274616 0.00736519 0.99181616 0.0043699145
1.1624142 -0.73161 0.034367859 14077143 -0.12565012 0.028842488 0.99165529 0.0029021229
1.1818106 -0.73053914 0.038735658 14208475 -0.11244878 -0.0011345372 0.99365687 0.0044989679
1.0163735 -0.7247504 0.037039161 11707318 -0.096483208 0.026220741 0.99498922 0.0019705477
1.0397419 -0.72927815 0.038613051 13418187 -0.084270038 0.019131573 0.99625927 0.0023036082
1.044166 -0.72230381 0.038129508 13418187 -0.074697234 0.012695969 0.99712545 0.0019495813
1.1385721 -0.72985494 0.032115579 13879512 -0.10949875 0.018536249 0.99381411 0.0010821848
1.1437819 -0.72240955 0.031014174 14010837 -0.11642635 0.0036662444 0.99319261 0.0008208935
1.1630741 -0.7214365 0.035149932 14142936 -0.15327607 0.017655293 0.98802567 0.0021979688
1.1870736 -0.72274476 0.03773123 14142423 -0.15456212 -0.0137266 0.98788774 0.0030387954
0.99570614 -0.71220326 0.035994798 13286601 -0.098846026 0.029446164 0.99466699 0.0014485021
1.0171627 -0.71571475 0.037993282 12298940 -0.092149377 0.0058307275 0.99572814 0.0018626751
1.0449723 -0.713072 0.039104342 13484493 -0.074581541 0.012401612 0.99713784 0.0020044709
1.1164248 -0.71847767 0.030556023 13945046 -0.070918173 0.010612436 0.99742568 0.0010541506
1.1877439 -0.71241206 0.038525581 14208216 -0.17076936 -0.017935999 0.98514783 0.0016165128
0.98448414 -0.70097297 0.031834543 13287114 -0.10624042 0.031500138 0.99384141 0.0013296074
1.0022725 -0.70222098 0.035131037 13287114 -0.10339041 0.039016169 0.99387538 0.0014438123
1.0179518 -0.70667922 0.038947403 12759228 -0.091803916 0.005792432 0.99576026 0.00195657
1.0232586 -0.70038539 0.038050354 13352394 -0.080124415 0.011300244 0.99672085 0.0016878177
1.0494043 -0.70600724 0.038630307 13288395 -0.061596304 0.024740435 0.99779451 0.0016053073
1.1222521 -0.70127976 0.030169249 14076630 -0.085739888 -0.020929592 0.99609774 0.0019369143
1.1398712 -0.70982647 0.033655345 13879249 -0.10811964 -0.00027187169 0.99413788 0.00092658802
1.1450859 -0.70230526 0.032559782 13945044 -0.10949366 -0.0011988656 0.99398679 0.00094802771
1.1663554 -0.70740581 0.035409212 14142423 -0.1488191 0.00070632255 0.98886424 0.0014303807
0.96269327 -0.69233686 0.031223923 13023429 -0.072567761 0.0034900606 0.99735743 0.00096754346
1.0088494 -0.69211799 0.034279972 13483980 -0.12739919 0.047273617 0.99072433 0.0016295097
1.024051 -0.69131207 0.039008498 13353166 -0.090701081 0.020958314 0.99565762 0.0018894359
1.0502132 -0.69674516 0.039608359 13353418 -0.062151585 0.0069936742 0.99804223 0.0011123087
1.1228943 -0.69137925 0.03093043 14010837 -0.079546906 -0.039420988 0.99605137 0.0025790615
1.145738 -0.69225311 0.033332556 14010324 -0.092676736 -0.025888573 0.99535966 0.0014587239
1.1696391 -0.6933372 0.035671443 14142421 -0.15400925 -0.017906129 0.98790717 0.0015501903
0.94316715 -0.68046325 0.030579388 12694718 -0.094283558 -0.0074315374 0.99551767 0.0019701477
0.96344882 -0.68368626 0.032137424 13089222 -0.071206905 -0.0034681114 0.99745554 0.0013259968
