# .PCD v0.7 - Point Cloud Data file format
VERSION 0.7
FIELDS x y z rgb normal_x normal_y normal_z curvature
SIZE 4 4 4 4 4 4 4 4
TYPE F F F U F F F F
COUNT 1 1 1 1 1 1 1 1
WIDTH 540
HEIGHT 1
VIEWPOINT 0 0 0 1 0 0 0
POINTS 540
DATA ascii
2.5487638 0.87386096 0.75245237 7497577 -0.99855381 0.05073699 -0.017777264 0.061379902
2.5671935 0.8787623 0.75549352 7366504 -0.99647325 0.082710646 -0.014141262 0.051027548
2.5496621 0.89528441 0.75164157 7431525 -0.9938758 0.03740976 0.10397824 0.058356643
2.5503662 0.89042169 0.75194335 7366504 -0.99763459 0.042655446 -0.053904645 0.038280249
2.551892 0.90858251 0.75193834 7431525 -0.9996264 0.0093377922 0.025690228 0.038372055
2.5511925 0.91331601 0.75115895 7431525 -0.99412483 0.010282585 -0.10775046 0.05840297
2.5534179 0.92674333 0.7519334 7299939 -0.99832696 -0.018017232 0.054943241 0.034439281
2.5701749 0.93787646 0.75329244 7299939 -0.98259282 0.055171505 -0.17739086 0.036807656
2.5540483 0.94620079 0.75157326 7234660 -0.99381888 0.05836644 -0.094432473 0.038480718
2.5551529 0.96292299 0.75223768 7168867 -0.97776979 0.11289563 -0.17669399 0.033388581
2.5416586 0.97515702 0.75022852 7825515 -0.98088896 -0.032677926 -0.19180484 0.039871283
2.5563598 0.98123461 0.75221229 7102818 -0.99414617 -0.030121433 -0.10375976 0.072458297
2.5428953 0.99333632 0.75057787 7628389 -0.95637 -0.21736725 -0.19521263 0.077421583
2.5575666 0.99954617 0.75218695 6839903 -0.99877119 -0.045539021 -0.019552847 0.088778213
2.544132 1.0115159 0.75092721 7299424 -0.92715937 -0.26801339 -0.26180986 0.090778865
2.5565 1.0181682 0.7524147 6774110 -0.9730708 -0.049793914 0.2250638 0.15862477
2.5453687 1.0296952 0.75127655 7233368 -0.95102561 -0.089473352 -0.29587981 0.093343213
2.5753953 1.0441883 0.75683624 6904666 -0.98944205 -0.050425518 0.13587399 0.16973667
2.4542184 -1.5591159 0.76360494 9930364 -0.83582449 -0.3842006 0.39215735 0.019896677
2.4738572 -1.5513517 0.76610512 9931134 -0.8358168 -0.38423729 0.39213771 0.019887583
2.4166825 -1.548427 0.76679975 8944750 -0.90675813 -0.22625846 0.35580459 0.021992061
2.4567621 -1.5217236 0.76432353 10128513 -0.85286629 -0.37331223 0.36504385 0.020520603
2.4013085 -1.5194722 0.76324487 9075825 -0.90102684 -0.13473411 0.41230729 0.024376264
2.4028668 -1.5009242 0.7632398 9208440 -0.91792232 -0.15969168 0.36320418 0.021739585
2.3888917 -1.4974815 0.76995587 9339510 -0.93031371 -0.32661662 0.16684741 0.041259829
2.4213903 -1.4923958 0.76678437 9470842 -0.91697246 -0.20954308 0.33948964 0.019871123
2.4406703 -1.4929615 0.76265609 10325122 -0.83762723 -0.38829663 0.38419586 0.017869946
2.373431 -1.4689735 0.76660919 9208440 -0.97670013 -0.1064747 0.18633308 0.046753097
2.4059837 -1.4638282 0.76322961 9602169 -0.96112615 -0.18022148 0.20918132 0.03530788
2.4245608 -1.4644578 0.76098365 10390917 -0.84849656 -0.3885304 0.35930181 0.02661101
2.3749826 -1.4506915 0.76611984 9536635 -0.98474437 -0.031441737 0.17114338 0.050066143
2.376534 -1.4324095 0.76563054 9536889 -0.99278724 0.048807673 0.10950554 0.08476606
2.3780856 -1.4141275 0.76514125 9668475 -0.99940979 -0.0016302518 -0.034314156 0.091203637
2.379637 -1.3958453 0.76465189 9733757 -0.98394853 0.067128405 -0.16534543 0.067124963
2.3811886 -1.3775634 0.7641626 9865341 -0.99911129 0.014913585 -0.039424703 0.047379278
2.4134157 -1.3629781 0.76071352 10785925 -0.98321187 0.12291533 0.13485621 0.056488991
2.38274 -1.3592813 0.76367331 9931134 -0.99939358 0.020676233 0.02801864 0.022728881
2.3842916 -1.3409992 0.76318395 10194304 -0.98905182 0.072583415 0.1284844 0.011355054
2.385843 -1.3227172 0.76269472 10194306 -0.96775699 0.18899442 0.16651617 0.019929532
2.3873947 -1.3044351 0.76220536 10457476 -0.92379916 0.3828299 -0.006043613 0.076162018
2.4060788 -1.2949599 0.76453543 10589577 -0.83941758 0.44283107 -0.31508547 0.11282247
2.4009457 -1.2809697 0.76006925 11378582 -0.99624747 -0.0077731283 -0.086201072 0.022089548
2.4076414 -1.2765487 0.76404274 10655117 -0.7349031 0.35413998 -0.57836181 0.054808091
2.4021823 -1.2627901 0.76041859 11575961 -0.98615223 0.16454929 -0.020673528 0.03537466
2.4092038 -1.2581378 0.76354992 10918289 -0.80439645 0.26014248 -0.53410894 0.053036798
2.403419 -1.2446108 0.76076794 11641499 -0.97514594 0.22090568 -0.017063562 0.029495142
2.4279323 -1.2481465 0.76586628 10984335 -0.85388947 0.33414072 -0.39902735 0.10582225
2.4046557 -1.2264314 0.76111734 11707292 -0.9790315 0.19274239 -0.065936968 0.033137918
2.4278741 -1.2261555 0.76426673 10984081 -0.86372852 0.25044817 -0.43731993 0.076090649
2.4233794 -1.2165093 0.76352817 11904671 -0.96282595 0.21075772 -0.16895959 0.03375385
2.4310791 -1.2110664 0.7648738 11049877 -0.96251827 -0.010078114 -0.27102971 0.16681765
2.4278011 -1.2041566 0.76315838 10853265 -0.75442064 0.19114408 -0.62794387 0.056765728
2.4071293 -1.1900727 0.76181602 11510944 -0.96519297 0.14426824 -0.21814941 0.044279825
2.408366 -1.1718932 0.76216537 9141896 -0.98604709 0.081636742 -0.14507467 0.04932354
2.417016 -1.1660825 0.76108611 3087910 -0.86460513 0.10097101 -0.49220216 0.12430666
2.4271159 -1.1615834 0.76458371 12758952 -0.97624153 0.12487534 -0.17708401 0.058047436
2.4185784 -1.1476713 0.76059335 11049625 -0.79460096 0.45480558 -0.40219551 0.1046757
2.4108393 -1.1355344 0.76286405 12101800 -0.92388511 0.18099625 -0.33715972 0.04112263
2.420141 -1.1292604 0.7601006 11248285 -0.83450496 0.38456389 -0.39460367 0.064020805
2.4340348 -1.1299647 0.76313806 11247772 -0.86815298 0.27462128 -0.41339287 0.062081575
2.412076 -1.1173551 0.76321346 12234151 -0.88266081 0.15583327 -0.44342533 0.029574489
2.4372697 -1.1148913 0.7627629 11378845 -0.88911557 0.32902789 -0.31814158 0.051472776
2.4308524 -1.1066576 0.76563919 12431017 -0.89753979 0.22079733 -0.38166851 0.042020854
2.4543443 -1.1001778 0.76667678 11576739 -0.93029761 0.2243903 -0.29016429 0.0536898
2.4405196 -1.099826 0.76189649 11576737 -0.88803524 0.30128834 -0.34730217 0.058123652
2.4320979 -1.0883491 0.76599103 12431276 -0.94803065 0.28917208 -0.13273086 0.052503936
2.4420929 -1.0812858 0.76140028 11576737 -0.93227029 0.25243539 -0.2591303 0.054504402
2.4559135 -1.0815006 0.76667166 11643043 -0.967103 0.10766926 -0.23047602 0.047797505
2.4333434 -1.0700405 0.76634288 12497841 -0.97435778 0.21725251 -0.05855133 0.054200348
2.4609418 -1.0698754 0.76367855 11839909 -0.94839549 0.10507169 -0.2991755 0.038780052
2.4402683 -1.0557729 0.76311773 11839139 -0.99152207 0.032976553 -0.12568428 0.033630025
2.4521549 -1.0588262 0.76877868 12563634 -0.98835272 0.14333513 -0.051127784 0.058821976
2.4452398 -1.0442058 0.76040787 11774118 -0.99049592 -0.042182788 -0.13091418 0.060923561
2.4534092 -1.0403883 0.76913297 12431793 -0.9531399 0.092557795 -0.28802317 0.067062438
2.4418268 -1.0372249 0.7631126 11708325 -0.9849053 0.12000261 -0.1247436 0.034232773
2.4606214 -1.0254697 0.76665634 11576739 -0.9831121 0.090311892 -0.15916762 0.035233553
2.4370799 -1.0151147 0.76739836 12300207 -0.92887676 0.076541692 -0.36239392 0.064067014
2.4621906 -1.0067925 0.76665121 11379617 -0.98871499 -0.027743896 -0.14721718 0.025333723
2.4383254 -0.99680603 0.7677502 12497069 -0.92001063 0.11252117 -0.37539238 0.048766956
2.446502 -0.98158085 0.76309735 11576996 -0.98874485 -0.12099462 -0.087999761 0.019347453
2.4395709 -0.97849745 0.76810205 12628657 -0.88354945 0.23186798 -0.40691236 0.035944205
2.4444382 -0.96161091 0.76577306 12365999 -0.96213436 0.017671416 -0.27200213 0.033353798
2.4496188 -0.94448495 0.76308721 12103341 -0.97402281 -0.16848122 -0.15130661 0.057755895
2.4445527 -0.90526301 0.76950938 13089727 -0.99883568 -0.024529262 -0.041540623 0.026753929
2.4457982 -0.88695443 0.76986122 13089727 -0.99944115 -0.0041656685 -0.033167187 0.026939943
2.454294 -0.88884097 0.76307195 12235188 -0.82938516 0.55848217 0.014761783 0.057333056
2.4731753 -0.87605304 0.76661533 12235190 -0.87640411 0.45053363 0.17010388 0.032171436
2.4747446 -0.85737598 0.76661021 12169395 -0.96164882 0.21251662 0.17340194 0.047177888
2.4763136 -0.83869898 0.76660508 12235188 -0.98611659 0.10499895 0.12864415 0.045291349
2.4605277 -0.81464899 0.76305157 12169393 -0.97355652 -0.19230834 0.12330928 0.03702892
2.4533484 -0.77926344 0.76888251 12300981 -0.99757338 -0.062693067 0.030281588 0.067324914
2.4636443 -0.77755302 0.76304144 12300979 -0.99757981 0.039291773 0.057365458 0.093824998
2.4549108 -0.7608524 0.76838976 12432569 -0.99619216 0.08289136 0.027023645 0.078519233
2.4825907 -0.76399076 0.76658458 12366774 -0.99506098 0.030199867 -0.094560683 0.090036802
2.4564734 -0.7424413 0.76789701 12432567 -0.97333342 0.21129662 0.089307286 0.079062544
2.4667611 -0.74045712 0.76303124 12300981 -0.97514158 -0.1241974 -0.1835046 0.063759796
2.4595983 -0.70561916 0.76691151 12235188 -0.98039597 -0.14256556 -0.13601042 0.054771598
2.4436417 -0.68266016 0.7635861 12235188 -0.98760164 -0.10331388 -0.11819175 0.050908972
2.462723 -0.66879702 0.76592594 12235188 -0.986224 0.13275935 -0.098677613 0.044322897
2.4642856 -0.65038598 0.76543319 12235190 -0.97847521 0.16955292 -0.11763565 0.037016522
2.4745531 -0.64771724 0.76300579 12235190 -0.99521321 -0.061260954 -0.076143429 0.052973345
2.465848 -0.63197494 0.76494038 12366776 -0.98790324 0.10378299 -0.11522306 0.031055991
2.4674106 -0.6135639 0.76444769 12366776 -0.98282433 -0.043019723 -0.17945927 0.033876218
2.4689729 -0.59515285 0.76395488 12432569 -0.96121049 -0.016166816 -0.27534169 0.028094698
2.4529507 -0.57296783 0.76065028 12300983 -0.97415203 0.1183588 -0.19240335 0.033715855
2.4720979 -0.55833066 0.76296937 12234936 -0.97509992 0.21294655 -0.06191925 0.045304451
2.4823451 -0.5549773 0.7629804 12104374 -0.95543951 0.27507946 -0.10708273 0.089130417
2.4736602 -0.53991961 0.76247656 12169395 -0.94332784 0.32723612 0.055219509 0.028285239
2.4752228 -0.52150857 0.76198387 12169397 -0.98787338 0.15505889 -0.0079319775 0.049096927
2.4842565 -0.52349395 0.76108181 13024195 -0.90954626 0.026377127 -0.41476482 0.082016423
2.4767852 -0.50309753 0.76149106 12038581 -0.99674624 -0.074608885 0.030504063 0.062452316
2.4870203 -0.49933338 0.76296514 11972788 -0.97600228 -0.1100859 -0.18788493 0.081115454
2.4783478 -0.48468649 0.76099831 12103604 -0.98238254 -0.18590221 -0.019103408 0.057551488
2.4885788 -0.48078537 0.76296002 11972786 -0.97035533 -0.15209165 -0.1878264 0.080810793
2.4702022 -0.4652251 0.76010734 12892094 -0.98675811 -0.034107223 -0.15857241 0.091190763
2.4714477 -0.44691652 0.76045918 12761023 -0.99981755 0.018431181 0.005016238 0.060742725
2.4726932 -0.42860794 0.76081103 12760508 -0.98474467 -0.012544279 0.17355286 0.022049068
2.4739387 -0.4102993 0.76116288 12694715 -0.98471904 0.11154152 0.13374209 0.022836398
2.4751842 -0.39199072 0.76151466 12628922 -0.99324936 0.11560365 0.0095694521 0.037586957
2.4764297 -0.37368211 0.76186651 12628922 -0.97330379 0.17113447 -0.15294686 0.042914089
2.4776752 -0.3553735 0.76221836 12629437 -0.9614625 0.11892136 -0.24788637 0.046200324
2.4789207 -0.33706492 0.7625702 12432058 -0.95082146 -0.0086799795 -0.30961803 0.038023315
2.4801662 -0.31875631 0.76292205 12366265 -0.96815795 0.01483203 -0.24990028 0.0501622
2.4814112 -0.30044773 0.76327389 12300470 -0.98185897 -0.064574718 -0.17827836 0.048737109
2.4826567 -0.28213912 0.76362568 12300983 -0.982638 -0.038592871 -0.18147495 0.051345445
2.4839022 -0.26383051 0.76397753 12169397 -0.98263562 0.042415462 -0.18063301 0.047785815
2.4672251 -0.24411689 0.76226217 12234677 -0.99176913 0.068845488 -0.10795531 0.054276746
2.4843738 -0.24370542 0.76985991 11314088 -0.99802762 -0.0037860582 0.062662676 0.039149828
2.4684618 -0.22593749 0.76261151 12037300 -0.99155325 -0.069443502 -0.10954351 0.071339168
2.4859252 -0.22542337 0.76937062 11313577 -0.98060006 -0.15034749 0.12577486 0.032049052
2.4696484 -0.20594893 0.76601136 11314088 -0.97500187 -0.15410718 0.16007 0.029875044
2.4876387 -0.20890473 0.76503307 12102578 -0.98743707 -0.1518608 -0.043663174 0.068742506
2.4710619 -0.18868729 0.76441783 11577001 -0.98799753 -0.083190396 0.13015479 0.038127445
2.4721718 -0.17139928 0.7636596 11905710 -0.98719597 -0.062711567 0.1466676 0.044325374
2.4727294 -0.16964287 0.76503956 11116707 -0.99849045 0.050083868 0.022549929 0.027627859
2.4738393 -0.15235487 0.76428133 11445419 -0.98763555 0.054451749 0.14700724 0.028331559
2.4752278 -0.13418865 0.76421309 11313832 -0.99594319 -0.0076835784 0.089655921 0.034253687
2.4766164 -0.11602242 0.76414478 11378855 -0.99943942 0.019479487 0.027229274 0.03695593
2.4780049 -0.097856209 0.76407659 11378855 -0.99629301 0.025504632 -0.082156546 0.036984283
2.4783552 -0.080502287 0.76540637 11773615 -0.99719065 0.072544932 0.01865785 0.035360474
2.4804323 -0.078877695 0.76261032 10853535 -0.99341631 0.010223094 -0.11410347 0.035906889
2.4795921 -0.062322892 0.76575571 11707822 -0.99727243 0.023379713 -0.070007637 0.037866358
2.4821711 -0.043357559 0.76387179 11116196 -0.99558741 0.090527423 -0.0247068 0.040415846
2.4650977 -0.026100907 0.76448089 11444648 -0.99478412 0.048119172 0.089939736 0.040714201
2.485054 -0.024418587 0.76115274 10721438 -0.98696494 0.16009924 0.016386196 0.027605172
2.4849482 -0.0070251254 0.76373529 11050401 -0.99409968 0.10695186 0.018084062 0.031590663
2.4863369 0.011141081 0.76366705 11050657 -0.99119741 0.10557364 0.079887003 0.027962357
2.4857755 0.0285741 0.76750249 11509923 -0.98971766 0.043570731 0.13623716 0.023118762
2.4870121 0.046753488 0.76785183 11509923 -0.99715692 -0.0041993228 0.075236991 0.027775072
2.4882488 0.06493289 0.76820117 11181730 -0.99827045 -0.00062985206 0.058784962 0.028812923
2.4676173 0.072187424 0.76672238 10392471 -0.99540919 -0.019988693 0.093600534 0.053364974
2.4894855 0.083112247 0.76855052 11115937 -0.99808091 -0.024704482 0.056782562 0.026708357
2.4736967 0.10030364 0.76690996 11050144 -0.99929404 0.023281913 0.029486045 0.030575493
2.4919589 0.11947108 0.7692492 11050144 -0.99311173 0.098062046 -0.064133041 0.023487059
2.4721644 0.12630534 0.76670748 10129553 -0.92309982 0.11635809 -0.3665345 0.032938112
2.4931955 0.13765049 0.7695986 10918558 -0.99053848 0.12181383 -0.063206092 0.022060204
2.47368 0.1443446 0.76670259 10063760 -0.94316769 0.095612518 -0.31826565 0.026861407
2.4944324 0.15582991 0.76994795 10852765 -0.99723029 0.025762819 -0.069771834 0.023058962
2.4798388 0.19059263 0.76864505 10786972 -0.99608248 0.082414351 -0.032057244 0.026435683
2.4915125 0.21008331 0.76998073 9866381 -0.98548484 0.15123704 -0.077117302 0.037434142
2.4961033 0.26417807 0.76853287 9669000 -0.99542034 -0.087087885 0.039422348 0.027315389
2.4858053 0.28865895 0.76666301 9668489 -0.99906749 -0.039967842 0.016332911 0.026025495
2.4976335 0.28220969 0.76805031 9734280 -0.98885083 -0.12745494 0.077001758 0.019718941
2.4991639 0.30024129 0.76756763 9668489 -0.99935544 -0.031659279 0.016925903 0.034966022
2.500694 0.31827295 0.76708508 9602694 -0.97799051 0.10478774 -0.18042774 0.04095915
2.4888365 0.32473761 0.76665312 9471621 -0.95568675 0.054550812 -0.28928718 0.04775428
2.5022242 0.33630455 0.76660246 9471108 -0.96555167 0.16356027 -0.2023811 0.031662926
2.4903522 0.34277689 0.76664811 9405830 -0.95645535 0.073858932 -0.28237927 0.041854493
2.5037546 0.35433614 0.76611984 9471363 -0.97797978 0.14289737 -0.15210499 0.019864835
2.4933834 0.37885547 0.76663822 9405315 -0.98016679 0.164784 -0.11008762 0.027208852
2.5052848 0.37236774 0.76563728 9340035 -0.97454113 -0.017032908 -0.22356118 0.028920073
2.4948993 0.39689475 0.76663333 9274242 -0.99238676 0.09423212 -0.079302192 0.027808174
2.506815 0.39039928 0.7651546 9208708 -0.9530738 -0.14701207 -0.26464647 0.033414733
2.5083454 0.40843093 0.76467204 9273729 -0.95938706 -0.14433943 -0.24236883 0.048643075
2.4964149 0.41493404 0.76662832 9273729 -0.99452037 0.011164928 -0.10394561 0.02796156
2.4916394 0.42313817 0.7613132 9207938 -0.95902538 -0.17791875 -0.22048855 0.054428536
2.4931586 0.44104072 0.76083404 9076863 -0.99235529 -0.017306771 -0.12219453 0.063437916
2.4994462 0.45101261 0.76661843 9076865 -0.98372406 0.00099366589 -0.17968298 0.027745884
2.5009618 0.46905196 0.76661354 9076605 -0.98318726 0.037794195 -0.17864618 0.028988713
2.5129361 0.46252573 0.76322418 8945277 -0.97120625 0.22748186 -0.070784442 0.050704103
2.5024774 0.48709118 0.76660854 8945277 -0.98113924 0.073210098 -0.17890251 0.031450253
2.5144663 0.48055732 0.76274157 9011072 -0.95766246 0.24149007 -0.15673262 0.041061189
2.5159967 0.49858892 0.76225901 8944764 -0.9931016 0.11488697 -0.023456663 0.048763487
2.503993 0.50513059 0.76660365 8879484 -0.97966844 0.074466452 -0.18629165 0.026818132
2.5175269 0.51662064 0.76177633 8944766 -0.99943471 0.018916676 0.027793335 0.037613325
2.5055089 0.52316982 0.76659864 8813691 -0.98535675 0.033680681 -0.16714577 0.032416921
2.519057 0.53465217 0.76129377 8813693 -0.99371803 0.00021475594 0.11191246 0.025012959
2.5070245 0.54120916 0.76659375 8747897 -0.9992165 0.0060091531 0.039119963 0.04392663
2.5085402 0.55924839 0.76658875 8747898 -0.98772538 0.039904408 0.15101752 0.042215768
2.5186639 0.57458311 0.76026297 9667460 -0.99397343 0.017774528 0.10817106 0.047602646
2.5115714 0.59532696 0.76657885 8681592 -0.93668413 0.27247339 0.21995717 0.020987965
2.513087 0.61336631 0.76657397 8550519 -0.94829088 0.27150178 0.16441174 0.021201693
2.5248475 0.66548014 0.76200974 9207168 -0.98979527 0.13319798 -0.050632492 0.023633581
2.5260842 0.68365955 0.76235908 9141377 -0.99672645 0.043366279 -0.068232663 0.026506346
2.5100505 0.69683385 0.76075983 9141375 -0.99628043 -0.071149722 -0.048611004 0.025415702
2.5112789 0.71489155 0.76110685 9075582 -0.99706793 -0.076313078 -0.0056496863 0.025535366
2.5125074 0.7329495 0.76145387 8878973 -0.99963617 0.026112996 -0.0067609851 0.024611766
2.5236967 0.73964137 0.76653928 8155250 -0.99658376 -0.0682787 0.046462975 0.046387803
2.5137358 0.7510072 0.76180089 8813180 -0.97977233 0.2001154 -2.9191377e-05 0.026149929
2.5252123 0.75768059 0.76653439 8023664 -0.99537462 -0.055850629 0.07816758 0.050736401
2.5267279 0.77571994 0.76652938 7957871 -0.98861575 0.067159779 0.13464235 0.059660226
2.5322676 0.77455658 0.76410586 8747389 -0.96966004 0.24437733 0.0062592784 0.023652382
2.5282438 0.79375941 0.76652449 7957871 -0.96447247 0.2305886 0.12892535 0.042539004
2.5335042 0.79273593 0.7644552 8550006 -0.995942 0.085864693 -0.026960837 0.032699719
2.5347409 0.81091541 0.76480454 8680824 -0.99739617 -0.065492183 0.030193539 0.039767388
2.5470212 0.81755167 0.76997679 7826285 -0.93396986 0.32506484 0.14843565 0.017642302
2.5186493 0.82323861 0.76318896 8418424 -0.99901187 0.011933845 0.042812962 0.044683434
2.548547 0.83571249 0.76997179 7629417 -0.94664162 0.29563025 0.1283453 0.028234402
2.5198779 0.84129632 0.76353598 8417654 -0.99082345 0.13223897 0.027960289 0.039419349
2.5500729 0.85387331 0.76996678 7497831 -0.97703928 0.13343932 0.16609742 0.033077627
2.5384512 0.86545348 0.76585263 8417141 -0.99075419 0.133752 0.022727357 0.038301002
2.5515988 0.87203401 0.76996177 7432038 -0.99268895 0.082141407 0.088438816 0.044007357
2.5396879 0.88363302 0.76620197 8286068 -0.9899689 0.13598812 0.038326476 0.031571582
2.5531173 0.89283115 0.76968443 7366246 -0.99046916 0.047007877 0.12946443 0.044165701
2.5409245 0.90181231 0.76655132 8220275 -0.99378395 0.10239914 0.043679908 0.033203818
2.5546505 0.90835565 0.76995188 7432038 -0.99859565 -0.050356254 0.016463103 0.035195574
2.5421612 0.91999173 0.76690066 8154482 -0.98912829 0.14589889 -0.018405097 0.046323024
2.5546405 0.91349906 0.76892948 7300713 -0.99899566 -0.029815404 -0.033447135 0.05936937
2.5561764 0.92651647 0.76994687 7235172 -0.99496233 -0.098244615 -0.01994841 0.031141277
2.5433979 0.93817127 0.76725 7957873 -0.99524575 0.096744299 0.011247084 0.045678947
2.5561707 0.93153054 0.76844692 7234659 -0.99711251 0.05150713 -0.055800576 0.052051034
2.5577016 0.94711977 0.76895308 7103074 -0.99503958 -0.045752034 -0.088334732 0.034505732
2.5432596 0.95623171 0.76703966 7562856 -0.99989742 -0.010400111 -0.0098455967 0.041350465
2.5406418 0.96039772 0.76458186 7103586 -0.99533534 -0.043564226 -0.086079806 0.043112308
2.5446358 0.97434109 0.76721191 7365990 -0.99514806 -0.051487453 -0.08384122 0.044282008
2.5607615 0.98562545 0.76699907 7103073 -0.99727726 -0.069665886 -0.024183037 0.037763394
2.5460119 0.99245042 0.76738405 7299683 -0.99686784 -0.078904256 -0.0053413371 0.057920493
2.5309336 1.0038165 0.76665914 7693670 -0.99009883 -0.13623971 -0.033810958 0.048175875
2.5622919 1.0036572 0.76651645 6971229 -0.99839562 0.049642719 0.027235389 0.028111478
2.5458155 1.0121682 0.76480472 6708570 -0.9988389 -0.020282205 0.043697774 0.061591625
2.5321622 1.0218742 0.76700616 7233629 -0.98718357 -0.15955903 -0.0030901136 0.045993824
2.5479472 1.0282701 0.76646018 6642775 -0.95459884 -0.29764408 -0.012211576 0.10202613
2.5467188 1.0320082 0.76266527 6576469 -0.99940348 -0.00046171693 -0.034532327 0.032690983
2.4314499 -1.597073 0.77056867 8550760 -0.91206443 -0.32656083 0.24798499 0.015872786
2.4181643 -1.5739406 0.7771697 8813162 -0.92865151 -0.23218845 0.28930086 0.014126048
2.4330306 -1.5782592 0.77056348 8748141 -0.92491442 -0.28597963 0.25049758 0.020975692
2.4197485 -1.5552715 0.77667004 8944750 -0.90550148 -0.32013214 0.27853641 0.021013303
2.4213328 -1.5366026 0.77617037 9010543 -0.89633673 -0.35547084 0.26499254 0.025205187
2.3933525 -1.4357493 0.77794445 9667960 -0.91258889 -0.24658206 0.32615769 0.03466814
2.3778827 -1.4076964 0.77426183 9668475 -0.98923409 -0.13178472 0.063629471 0.043026984
2.3964477 -1.3989115 0.77793437 9800061 -0.99017549 -0.11477415 0.079871453 0.045679029
2.3809564 -1.3711169 0.77425176 9800059 -0.99853498 0.019350084 0.05053167 0.051242411
2.3824928 -1.352827 0.77424675 9931643 -0.99669963 0.068557993 0.043470766 0.049204808
2.3840296 -1.3345371 0.77424175 10062720 -0.99499279 0.031415541 -0.094881639 0.032653973
2.3855665 -1.3162472 0.77423674 10194558 -0.96152973 0.020579815 -0.27392882 0.037807621
2.3871033 -1.2979574 0.77423173 10457989 -0.95378757 0.088029057 -0.28729826 0.067228541
2.3924417 -1.2859675 0.77973342 10589577 -0.92433017 0.15655865 -0.34799886 0.062637083
2.3886397 -1.2796677 0.77422673 10458505 -0.89905661 0.23998766 -0.36620095 0.069610737
2.3920851 -1.2645316 0.77673292 10720907 -0.8246429 0.30099329 -0.47892281 0.057968114
2.408828 -1.25156 0.77789396 10852749 -0.66516519 0.28891894 -0.68853551 0.060413584
2.3955448 -1.2494034 0.77875477 10918289 -0.81387633 0.29817525 -0.49869525 0.054167036
2.3932498 -1.2247981 0.7742117 10656138 -0.75955826 0.24392417 -0.60296953 0.066329941
2.3947866 -1.2065083 0.7742067 10919056 -0.78420889 0.17778096 -0.59448326 0.057749983
2.3963234 -1.1882185 0.77420163 10919310 -0.76220167 0.16178572 -0.62679672 0.057634097
2.4017508 -1.1762753 0.77679753 11380635 -0.93870932 0.11964457 -0.32328016 0.12061267
2.4150183 -1.1778846 0.77787375 10394005 -0.70598078 0.12884903 -0.69641161 0.03676378
2.4033024 -1.1579932 0.77630818 4204107 -0.93853247 0.2791976 -0.20299144 0.11179614
2.4165659 -1.1594656 0.77786869 12229786 -0.74383807 0.13287361 -0.65501887 0.036127932
2.4181132 -1.1410468 0.77786368 11181461 -0.86177593 0.2763539 -0.42540663 0.057437245
2.4196608 -1.1226277 0.77785856 11247770 -0.89173096 0.37252063 -0.25699094 0.03331282
2.4236617 -1.1290735 0.77824509 11247770 -0.85536766 0.32485819 -0.40350136 0.062836125
2.4252241 -1.1106623 0.77775228 11379358 -0.86596566 0.23091184 -0.44360253 0.04401857
2.4212084 -1.1042089 0.77785355 11314078 -0.87103444 0.31746703 -0.3748515 0.034737766
2.428349 -1.0738403 0.77676678 11708323 -0.88771087 0.22661808 -0.4007664 0.045061648
2.4472115 -1.0625577 0.77917564 11643043 -0.92934471 0.17930186 -0.32275268 0.037453707
2.4487851 -1.0440177 0.77867943 11774118 -0.98907077 0.085953809 -0.11979536 0.069936201
2.4503584 -1.0254775 0.77818322 11511203 -0.99950171 -0.023694463 -0.020854682 0.050565016
2.4519317 -1.0069374 0.77768695 11379360 -0.98687369 0.16149412 7.921458e-05 0.052499101
2.4361613 -0.98178506 0.77430296 11510944 -0.99785435 -0.042471312 -0.049828589 0.072049528
2.4550786 -0.96985728 0.77669454 11971497 -0.98232257 -0.17289248 -0.071768016 0.037819959
2.4392862 -0.94496298 0.77331746 12102828 -0.98729169 0.014416655 -0.15826347 0.067257524
2.4596806 -0.94819933 0.7709046 12958137 -0.93222022 0.10501069 -0.34632117 0.042137351
2.4408488 -0.92655194 0.77282465 12169136 -0.96408713 0.048413284 -0.2611365 0.057688788
2.4609349 -0.92976159 0.77125889 13155518 -0.9773736 0.0061056418 -0.21143225 0.037059072
2.4193738 -0.91387075 0.77412641 12103854 -0.99866271 0.022327088 0.046630409 0.074834689
2.4597988 -0.91423708 0.77520591 12235186 -0.8928721 0.30110192 -0.33483893 0.047530051
2.4439735 -0.88972986 0.77183914 12169393 -0.93415517 0.26815769 -0.23546903 0.075358205
2.4629457 -0.87715691 0.77421343 12169393 -0.97646081 0.13113227 -0.17125607 0.057608411
2.4470437 -0.86864585 0.77021307 13089727 -0.98941916 0.12522784 -0.073264942 0.02968874
2.4482892 -0.85033721 0.77056491 13024191 -0.98331147 0.14067945 -0.11535944 0.024755165
2.464519 -0.85861683 0.77371728 12169393 -0.9556933 0.29283378 -0.029978307 0.093219347
2.4660923 -0.84007674 0.77322102 12103854 -0.99316084 0.068843946 0.094298214 0.086222291
2.4495347 -0.83202869 0.77091676 13089984 -0.99122941 0.13019042 0.022686318 0.042182878
2.4851081 -0.82698786 0.7755816 12169136 -0.99793082 0.036796857 -0.052726477 0.067168012
2.4684606 -0.81913483 0.77338481 12958398 -0.9802385 0.18585882 -0.067742221 0.048064638
2.4692392 -0.80299658 0.7722286 12168882 -0.96916646 -0.23852533 -0.061823625 0.045885678
2.4520257 -0.79541147 0.77162039 13155520 -0.98135954 0.13605478 -0.13572958 0.058377173
2.4532712 -0.77710289 0.77197224 13221313 -0.99679542 0.017905373 -0.077963412 0.058818176
2.4899299 -0.76884842 0.77657133 13286852 -0.9992761 -0.0053420514 -0.037665948 0.055489644
2.4557621 -0.74048567 0.77267593 13221572 -0.99997061 0.0064681889 -0.0041124229 0.055185057
2.4521594 -0.73583055 0.77775252 12366774 -0.9704991 -0.10847746 -0.21532324 0.062048573
2.4570076 -0.72217703 0.77302778 13352131 -0.99851161 -0.052322604 -0.015393334 0.049388781
2.4755328 -0.7288363 0.7702437 12366774 -0.98922431 0.055657066 0.13541654 0.059142411
2.453707 -0.71741158 0.77774745 12300983 -0.96656901 -0.14077318 -0.21430652 0.060918625
2.4582531 -0.70386845 0.77337956 13286336 -0.98918891 0.016646527 -0.14569889 0.021078367
2.4552546 -0.69899273 0.77774245 12300983 -0.98220223 0.08400321 -0.1679948 0.066820808
2.4594986 -0.68555987 0.77373141 13155520 -0.99790972 -0.059056565 -0.026241064 0.027608477
2.4607441 -0.66725123 0.77408326 13089986 -0.99444693 -0.059416641 0.086862303 0.026600102
2.4619896 -0.64894265 0.7744351 13155779 -0.96637434 0.052625213 0.25169665 0.029736836
2.4632349 -0.63063401 0.77478695 13287365 -0.97755253 0.1147436 0.17670608 0.035260666
2.4614449 -0.6253171 0.77772218 12432569 -0.97590214 -0.13713823 -0.16972974 0.058719419
2.4644804 -0.61232543 0.7751388 13221574 -0.98322004 0.15998225 0.087658994 0.033473339
2.4454982 -0.60294336 0.77404112 12235706 -0.9870556 -0.084569529 -0.13626909 0.075390868
2.4533436 -0.60934633 0.77964616 12301753 -0.98914868 -0.049105436 -0.13846837 0.020110499
2.454895 -0.59106427 0.7791568 12235190 -0.98629701 -0.0013050854 -0.16497447 0.022185199
2.4835117 -0.5978812 0.77763665 13221574 -0.9928813 0.11562737 -0.028584361 0.031313572
2.4470346 -0.58465356 0.77403611 12235960 -0.99027973 0.13219054 -0.043263361 0.089147769
2.4564466 -0.57278228 0.77866757 12300981 -0.97792488 0.17718464 -0.11076336 0.036191273
2.4665294 -0.57288426 0.77677476 12629949 -0.9877702 0.15142566 -0.037151933 0.05556947
2.457998 -0.55450022 0.77817822 12300729 -0.9594872 0.28132254 0.015558749 0.028934479
2.4682169 -0.55739963 0.77619427 13221574 -0.98612893 0.13591073 -0.095278695 0.0571803
2.4693224 -0.53615677 0.77712154 12498365 -0.94716531 0.10090028 -0.30446187 0.072499759
2.4707079 -0.52078241 0.77689797 13023940 -0.94463378 -0.0062501826 -0.32806718 0.070273578
2.4707301 -0.51480353 0.7776919 12038581 -0.97496998 -0.10552497 -0.19569889 0.077635348
2.454421 -0.49622995 0.77455127 12432826 -0.95007449 -0.074984796 -0.3028791 0.065151937
2.4626527 -0.49965405 0.77671027 12104374 -0.98495501 -0.12177717 0.12261309 0.050275937
2.4553604 -0.48107612 0.77544081 13023934 -0.98935711 0.013063222 -0.14492066 0.056660295
2.4818683 -0.48449963 0.77914274 11972016 -0.98241937 -0.16361691 0.089898854 0.048241921
2.4562552 -0.47491452 0.77400607 11972018 -0.98013961 -0.13909373 -0.14134809 0.074559197
2.4744444 -0.46585664 0.77795345 12826814 -0.98160821 0.0071125864 -0.19077398 0.07963343
2.4834306 -0.46608853 0.77864993 12037809 -0.98905492 -0.12490387 0.078545846 0.054479197
2.4577916 -0.45662469 0.77400106 11840432 -0.99302733 -0.055257075 -0.10413158 0.077446565
2.4673071 -0.44480792 0.77524233 11774639 -0.98190683 0.0089136604 0.18915461 0.037565783
2.4756899 -0.44754806 0.77830529 12695230 -0.99432135 0.10079791 0.034131035 0.057331227
2.4593284 -0.43833482 0.77399606 11839917 -0.99639845 0.075103424 -0.039365008 0.065114692
2.4648619 -0.42328542 0.77437198 11840432 -0.99561679 0.082953319 0.043196268 0.040731199
2.4769354 -0.42923948 0.77865714 12760508 -0.99015588 0.060547248 0.12619561 0.032187976
2.4603071 -0.40835854 0.77683818 12629437 -0.98853987 0.021881694 0.14936598 0.019049671
2.4704101 -0.40824381 0.77426374 11708846 -0.98724294 0.15781754 0.021097124 0.023186013
2.4800155 -0.40429014 0.77766162 11774639 -0.98402524 0.16529231 0.066127688 0.048321988
2.4794264 -0.39262226 0.77936077 12563644 -0.99691767 0.053014677 0.057833124 0.028708002
2.4719617 -0.38996175 0.77377439 11512237 -0.99037331 0.13159889 -0.042923599 0.024447473
2.4815631 -0.38587123 0.77765656 11708844 -0.96290964 0.2681458 -0.030048702 0.065789558
2.4735131 -0.37167972 0.77328515 11578030 -0.9828372 0.12925154 -0.13162501 0.023180479
2.4806719 -0.37431365 0.77971262 12629435 -0.98660201 0.084851205 -0.13934419 0.041940678
2.4654753 -0.36517546 0.77397591 11774637 -0.96870142 0.24411447 0.045008123 0.061637629
2.4640172 -0.35382032 0.77788627 12628922 -0.92924875 0.072274737 -0.36231652 0.032909147
2.4750648 -0.3533977 0.7727958 11577260 -0.99670327 0.055066381 -0.059584983 0.029547619
2.4846582 -0.34903342 0.77764648 11708846 -0.99637496 0.025260855 0.081233345 0.076507635
2.4652538 -0.33564097 0.77823561 12563642 -0.93564767 0.095242463 -0.33984163 0.033890806
2.4766161 -0.33511564 0.77230644 11643053 -0.99993974 0.0070336582 0.0084344596 0.028517032
2.4862056 -0.33061451 0.77764142 11643053 -0.98434985 -0.0010580622 0.17622229 0.060502537
2.4664905 -0.31746155 0.77858496 12432056 -0.94692707 0.06350714 -0.3151128 0.041216742
2.4781678 -0.31683359 0.77181721 11576747 -0.9977144 -0.066748276 0.010521934 0.025830135
2.4877532 -0.3121956 0.77763635 11445674 -0.98379451 0.07083755 0.16471331 0.063012391
2.4677274 -0.29928216 0.7789343 12366263 -0.97270697 -0.017774357 -0.23135521 0.04493513
2.4756708 -0.29528379 0.7726419 11445419 -0.99521118 -0.019808931 0.095720127 0.040739641
2.4812708 -0.2802695 0.77083856 11445674 -0.99422014 0.06148063 0.088014014 0.020562382
2.4731586 -0.27372625 0.77395087 11445674 -0.99977607 0.018124271 -0.010929301 0.07052692
2.4702008 -0.26292336 0.77963305 12366263 -0.9900251 0.068956733 -0.1228632 0.043218005
2.4828222 -0.26198745 0.77034926 11445674 -0.99006313 0.11076239 0.086640611 0.020601844
2.4923959 -0.25693884 0.77762121 11379881 -0.96477032 -0.064782612 -0.25499302 0.093043283
2.4714375 -0.24474397 0.77998239 12168886 -0.9730978 0.06990128 -0.21953252 0.045265194
2.4762323 -0.23714656 0.77394086 11379879 -0.93175888 -0.15310319 -0.32921842 0.06161385
2.4600468 -0.21761243 0.77026063 11182500 -0.93618894 -0.093750589 -0.33876413 0.059768461
2.4615726 -0.19945164 0.77025563 11116709 -0.87757516 0.030640528 -0.47845903 0.050713409
2.4808424 -0.18227704 0.77392578 11116707 -0.91803336 0.018622138 -0.39606577 0.055160638
2.4646244 -0.1631301 0.77024567 11050914 -0.94349158 -0.047835782 -0.32792601 0.070936292
2.4661503 -0.14496933 0.77024072 10919328 -0.99341893 4.7610461e-05 0.11453724 0.13147914
2.4624376 -0.13251726 0.77915025 10853537 -0.98857927 -0.003497107 0.15066142 0.029554754
2.4676762 -0.12680855 0.77023572 10787742 -0.97823703 0.037164349 0.20413524 0.10982762
2.469202 -0.10864777 0.77023071 10853022 -0.98748523 0.15137357 -0.044260714 0.08519534
2.4654982 -0.096454039 0.77818507 10853535 -0.99781936 -0.029612189 -0.058989719 0.021767944
2.4707279 -0.090487003 0.77022576 10853022 -0.95594758 0.087051749 -0.28033245 0.067967951
2.4670284 -0.078422427 0.77770245 10721949 -0.98043495 0.013168892 -0.19640248 0.031448986
2.4722538 -0.072326235 0.77022076 10721949 -0.95731264 -0.064717077 -0.2817165 0.050219584
2.4685588 -0.060390823 0.77721989 10787742 -0.99106687 0.049004097 -0.12403653 0.037761863
2.4737797 -0.054165445 0.77021581 10525340 -0.97618932 0.0019785995 -0.21691141 0.020043461
2.470089 -0.042359196 0.77673721 10656156 -0.98521119 0.16268563 -0.053780273 0.026871605
2.4753056 -0.03600467 0.7702108 10590363 -0.97101039 0.10519107 -0.21464774 0.023664214
2.4885254 -0.024234349 0.77904296 10589850 -0.99193829 0.11735739 -0.0478089 0.02930616
2.4768314 -0.017843895 0.7702058 10393752 -0.98685104 0.10748082 -0.12071805 0.038722027
2.4900658 -0.0060813213 0.77855718 10524572 -0.99390531 0.10137967 0.043294746 0.02503375
2.4783573 0.00031686411 0.77020085 10459547 -0.98028398 0.19220403 -0.045836557 0.041030169
2.4772816 0.015106617 0.77274263 10458779 -0.99471873 0.073720574 -0.071413316 0.040971894
2.4762099 0.029767206 0.7748068 10327191 -0.99987358 0.011856461 0.010602951 0.024583858
2.4992831 0.037201062 0.77386564 10458777 -0.98820734 -0.055871468 -0.14256471 0.043367453
2.4946876 0.048377775 0.77709961 10392984 -0.99400336 0.040957902 -0.10138972 0.023611959
2.4829347 0.054799162 0.77018589 10261400 -0.99701983 -0.067162864 0.037956122 0.046133038
2.4792705 0.065830417 0.77384162 10458518 -0.99267972 0.066500634 -0.10081984 0.024899628
2.4808006 0.083862044 0.77335894 10326932 -0.99374187 0.047053639 -0.10130665 0.024332643
2.4859865 0.091120742 0.77017599 10326932 -0.96314055 -0.028267473 -0.26750943 0.059072822
2.4849217 0.10558759 0.77152371 10129554 -0.98049015 0.018057825 -0.195737 0.031381018
2.4838612 0.11992524 0.77239376 10064271 -0.97282583 0.00350507 -0.2315117 0.032159235
2.4853914 0.13795689 0.77191114 10129553 -0.97194147 0.042822029 -0.23129234 0.035519008
2.4869218 0.15598845 0.77142859 9997967 -0.98266733 0.12490971 -0.13697655 0.027685378
2.49209 0.16376381 0.77015603 9931920 -0.91294068 0.17667709 -0.367865 0.040744986
2.488452 0.17402008 0.77094591 9932174 -0.96884573 0.21374476 -0.1251047 0.038166396
2.4956691 0.17400929 0.77029729 10655643 -0.99639344 0.050728891 -0.068020232 0.023864301
2.4936159 0.1819246 0.77015108 9866127 -0.86421889 0.19630881 -0.46323708 0.048323549
2.4899824 0.19205171 0.77046335 9866381 -0.96590829 0.24211466 -0.091660865 0.029127438
2.4951417 0.20008539 0.77014607 9866381 -0.95422095 0.10633776 -0.27956161 0.070625804
2.4974051 0.21430713 0.77056849 10260626 -0.99009824 0.054974325 -0.12916347 0.04484256
2.4993792 0.2285475 0.77134532 10721177 -0.99460113 0.10188988 -0.019674987 0.03081478
2.5100932 0.22990811 0.772241 9734795 -0.99798906 0.048502561 -0.040808592 0.039921738
2.4981935 0.23640688 0.77013612 9800075 -0.98374301 -0.046485413 -0.17346133 0.051917344
2.5006158 0.24672692 0.77169472 10720407 -0.99961138 0.0038112355 -0.027613312 0.029698944
2.5116336 0.24806109 0.7717551 9734282 -0.99543321 -0.095349304 0.0046234131 0.038616713
2.4997194 0.25456768 0.77013117 9800075 -0.99990797 -0.013520417 0.001130417 0.031623695
2.4847527 0.26282382 0.77003312 10720409 -0.99900556 -0.033892486 0.028967109 0.037009697
2.5012453 0.27272847 0.77012616 9734282 -0.99895495 -0.031003309 0.03358325 0.029211234
2.485981 0.28088158 0.77038014 10523030 -0.99936813 -0.034652185 0.0079099396 0.037507493
2.5043116 0.30515748 0.77142942 10062734 -0.98349547 0.050509427 -0.17373994 0.037424736
2.4884379 0.31699717 0.77107418 10326417 -0.99097008 0.078256488 -0.10887735 0.026728647
2.4896662 0.33505502 0.77142119 10391442 -0.99397576 0.078902051 -0.076069675 0.029204929
2.4908946 0.35311279 0.77176821 10325649 -0.99058902 0.078141369 -0.1123715 0.019400161
2.5088747 0.36353236 0.77010125 9405315 -0.96916026 0.10085629 -0.22484772 0.03676768
2.4921231 0.37117061 0.77211523 10259856 -0.99516279 0.020161176 -0.096148908 0.021710692
2.4933515 0.38922837 0.77246225 10259597 -0.99677849 -0.012081692 -0.079288766 0.021373047
2.49458 0.40728614 0.77280927 10193804 -0.99580556 0.045459237 -0.07940232 0.024374276
2.4958084 0.42534396 0.77315629 10062731 -0.99711317 0.041372627 -0.063668467 0.024525892
2.5149779 0.43617541 0.77008134 9142656 -0.99075067 -0.014450443 -0.13492346 0.0286118
2.4970367 0.44340172 0.7735033 9996686 -0.99026769 0.1234565 -0.064253114 0.022713657
2.4982653 0.46145955 0.77385032 9996684 -0.98701799 0.078543983 -0.14009409 0.034149043
2.4994936 0.47951728 0.77419734 9865352 -0.98972768 0.023666909 -0.14099328 0.03361167
2.5007222 0.4975751 0.77454436 9864841 -0.98408633 0.11013754 -0.13944125 0.033364225
2.5019505 0.51563293 0.77489138 9799046 -0.98827314 0.067748845 -0.1368441 0.042766649
2.5031788 0.53369075 0.77523839 9799046 -0.99295896 0.099402748 -0.064432837 0.050499078
2.5044074 0.55174857 0.77558541 9667460 -0.99642867 0.012711208 0.083476663 0.038762063
2.5056357 0.5698064 0.77593243 9667460 -0.99645603 0.01222388 0.083222695 0.03871391
2.5068641 0.5878641 0.77627945 9470594 -0.98601419 0.032851394 0.16339159 0.031914063
2.527185 0.58146161 0.77004153 8747385 -0.94415981 0.19281965 0.26717582 0.026429018
2.5080926 0.60592192 0.77662647 9404549 -0.99288434 0.046292461 0.1097168 0.026037185
2.509321 0.62397975 0.77697349 9338245 -0.98563147 0.15987527 0.054503102 0.025190294
2.5317626 0.63594395 0.77002656 8550519 -0.98243403 0.15902065 0.097651832 0.015116209
2.5105495 0.64203757 0.77732044 9535108 -0.98449939 0.17536424 0.0029032233 0.022864684
2.5332885 0.65410477 0.77002162 8484726 -0.99118507 0.10970329 0.07427977 0.018712658
2.5117779 0.66009527 0.77766746 9272704 -0.99114448 0.13273309 -0.00381127 0.023930326
2.533217 0.66105652 0.77568603 8550006 -0.97601533 0.091697164 0.197448 0.034773052
2.5130062 0.6781531 0.77801448 9206911 -0.99789423 0.064719982 0.0043015783 0.028051833
2.5347805 0.67567676 0.77261001 8287348 -0.98161268 0.037458882 0.18717207 0.032468766
2.5142348 0.69621092 0.7783615 9207422 -0.99901474 -0.019903397 0.039667446 0.026718335
2.53634 0.69042629 0.7700116 8221556 -0.98941875 -0.043960787 0.13826814 0.030371573
2.5378659 0.70858699 0.7700066 8221554 -0.99178618 -0.015215531 0.12699883 0.039650105
2.5536189 0.70207119 0.77749884 8155761 -0.95213771 0.15202294 0.26518449 0.050700344
2.5154631 0.71426862 0.77870852 9075836 -0.99692237 0.0066609932 0.078111812 0.024680538
2.5378077 0.71515131 0.77423823 8221041 -0.96229762 0.10823732 0.24953583 0.051784694
2.5208907 0.72766393 0.7708109 8286066 -0.95833236 0.087642409 0.27187878 0.054625574
2.5393918 0.72674769 0.77000165 8221041 -0.9888494 -0.0087108659 0.14866415 0.049727578
2.5166917 0.73232657 0.77905554 9009532 -0.98152262 0.048948564 0.18497957 0.012784769
2.51792 0.75038427 0.77940255 8943996 -0.9828226 0.14323573 0.11637609 0.025199752
2.5582404 0.75653034 0.77604127 8155250 -0.99736625 -0.0087428577 0.072000667 0.052300569
2.5191483 0.76844209 0.77974957 8812412 -0.97567666 0.20742123 0.070932873 0.025175007
2.5423985 0.76924604 0.77279037 8089455 -0.99107689 0.087733455 0.10034662 0.040077172
2.5439286 0.7872777 0.77230775 7958124 -0.9651624 0.05453549 0.25590524 0.010088797
2.545459 0.80530953 0.77182513 7892076 -0.97883838 0.075239368 0.19030102 0.022509862
2.5469892 0.82334107 0.77134252 7760492 -0.96741331 0.22202441 0.1217242 0.023769218
2.5485194 0.84137267 0.77085996 7694699 -0.97204053 0.23085129 0.042951625 0.028804751
2.5674839 0.86544853 0.77312607 7563111 -0.98341703 0.10648245 0.14680769 0.049908977
2.5690243 0.88360149 0.77264023 7497318 -0.98226202 0.082164034 0.16855383 0.053492088
2.4343076 -1.5973079 0.78922969 8550762 -0.91210043 -0.32669711 0.24767287 0.015885338
2.4358883 -1.5784942 0.78922451 8748400 -0.91191238 -0.28096744 0.2991206 0.017133357
2.437469 -1.5596805 0.78921932 8748139 -0.91153008 -0.23923327 0.33448508 0.020695413
2.4210887 -1.5299833 0.78531998 9142131 -0.89468336 -0.18905008 0.40472448 0.016135609
2.422658 -1.5113062 0.78531486 9273717 -0.89258724 -0.19610927 0.40599161 0.018037418
2.3924124 -1.4972945 0.78810036 9207924 -0.90090758 -0.33650866 0.27409419 0.037516661
2.4072423 -1.482608 0.78163213 9471094 -0.90824628 -0.18648349 0.37458315 0.016793903
2.3769267 -1.4687879 0.78462648 9470842 -0.95632738 -0.096467994 0.27592024 0.035788424
2.3955374 -1.4604725 0.78711486 9536635 -0.92447299 -0.13254993 0.3574636 0.032346599
2.4088008 -1.4640599 0.78162706 9536635 -0.94507217 -0.20553988 0.25414956 0.032276344
2.3971 -1.4420613 0.78662205 9536889 -0.94463193 -0.11264481 0.30819103 0.033245418
2.3815813 -1.4139419 0.7831586 9602682 -0.97016251 -0.064253293 0.23378694 0.033855781
2.3831327 -1.3956597 0.78266931 9668221 -0.98010713 -0.042262323 0.19391726 0.025175923
2.3846843 -1.3773777 0.78217995 9865341 -0.9884696 0.04413728 0.14484408 0.011710185
2.3862357 -1.3590957 0.78169066 9931132 -0.97817194 0.08858604 0.18796849 0.00090146315
2.3877873 -1.3408136 0.78120136 9997438 -0.97805756 0.089035757 0.18835106 0.00090140064
2.3893387 -1.3225316 0.78071201 10128511 -0.98905635 0.091418803 0.11580212 0.02469568
2.3908904 -1.3042495 0.78022271 10326403 -0.99394649 0.081696816 -0.073458195 0.056106348
2.4142869 -1.2395397 0.78120166 10984335 -0.77287626 0.41928935 -0.4762969 0.094575912
2.4158494 -1.2211288 0.78070891 10984081 -0.76295727 0.49489784 -0.41589963 0.16392726
2.4518368 -1.2190387 0.78607476 11049877 -0.92232907 0.19676208 -0.33255652 0.14502668
2.4393446 -1.1552581 0.78165674 11247004 -0.87613034 0.30463165 -0.37362444 0.06553857
2.4399688 -1.0931005 0.78152531 11445664 -0.91213226 0.26562807 -0.31218028 0.050104354
2.4440649 -1.0996379 0.78016806 11641760 -0.80106831 0.37432224 -0.46708935 0.039387275
2.4415271 -1.0745525 0.78152025 11511455 -0.93805802 0.19012153 -0.28965676 0.048864231
2.4430854 -1.0560046 0.78151518 11708323 -0.95546669 0.12578706 -0.26694763 0.043742798
2.444644 -1.0374566 0.78151006 11774375 -0.97584212 0.10941296 -0.18910588 0.028124332
2.4462023 -1.0189086 0.78150499 11445664 -0.98362643 0.088992946 -0.15671426 0.030626809
2.4477608 -1.0003606 0.78149992 11379356 -0.98912269 -0.0068074376 -0.14693531 0.024075618
2.4493191 -0.98181248 0.7814948 11642530 -0.98980486 -0.035443835 -0.13794971 0.025338296
2.4508774 -0.96326458 0.78148973 11971497 -0.98443836 -0.14692494 -0.096406542 0.042179331
2.452436 -0.94471657 0.78148466 12037547 -0.99722928 -0.025132667 -0.070014708 0.059077576
2.4555528 -0.90762055 0.78147447 12103600 -0.95537186 0.26772368 0.12485473 0.10115375
2.447494 -0.889543 0.78998357 12235188 -0.95117575 0.2730296 -0.14394325 0.063211113
2.4571111 -0.8890726 0.7814694 12169395 -0.8872382 0.43632078 0.14977506 0.06088075
2.4586694 -0.87052459 0.78146428 12169393 -0.91395783 0.35356885 0.19917369 0.052056342
2.4775815 -0.85760927 0.78513563 12103600 -0.95400012 0.2551176 0.15747617 0.053879056
2.4791505 -0.83893228 0.7851305 12103600 -0.99316448 0.051125612 0.1049315 0.044971723
2.4807198 -0.82025516 0.78512543 11972014 -0.98712772 -0.046345249 0.15307191 0.057104964
2.4822891 -0.8015781 0.78512031 12235186 -0.97466415 -0.063278727 0.21453607 0.051369436
2.4553063 -0.79748768 0.78751969 12169395 -0.97613364 -0.20727101 -0.064821839 0.067611061
2.4393799 -0.77388477 0.78404999 12300981 -0.99238372 0.055137563 0.11015641 0.073283255
2.4664614 -0.77778465 0.78143889 12170165 -0.9821707 -0.085156843 0.16759786 0.074452139
2.4584312 -0.76066554 0.78653419 12301751 -0.95427144 0.20951857 0.21323226 0.074238524
2.46802 -0.75923675 0.78143376 12366772 -0.9974615 -0.063611969 -0.032001454 0.08374434
2.4775047 -0.74718821 0.7890116 12366774 -0.95352703 0.16074677 0.25484654 0.074875101
2.4615562 -0.7238434 0.78554869 12300981 -0.9496938 -0.15164089 0.27401966 0.065730162
2.4631188 -0.7054323 0.78505588 12300468 -0.95990193 -0.25725114 0.11140081 0.04943458
2.4471376 -0.68247461 0.7816034 12234675 -0.99655837 -0.074237645 -0.03688091 0.05692732
2.4742534 -0.68504477 0.78141344 12169395 -0.98331165 0.18116334 -0.0166789 0.038930759
2.448689 -0.66419256 0.7811141 12300981 -0.99743259 0.064431071 -0.031255174 0.042497613
2.475812 -0.66649681 0.78140837 12169395 -0.98776722 0.15228786 -0.033532307 0.043929908
2.4678061 -0.65019912 0.78357762 12235960 -0.97647637 0.14918807 -0.15568185 0.028663369
2.4773703 -0.64794886 0.78140324 12300983 -0.99178809 0.0010001183 -0.12788843 0.061066709
2.4693685 -0.63178807 0.78308487 12301753 -0.98447204 0.047802992 -0.16890737 0.023442475
2.4851623 -0.55520892 0.78137785 12104120 -0.94387108 0.26769146 -0.19351648 0.076977849
2.4771807 -0.53973275 0.78062105 12169397 -0.96927136 0.23085184 -0.084973574 0.049160279
2.4787433 -0.52132171 0.78012824 12103350 -0.9813171 0.12756087 -0.14403149 0.04765515
2.4816637 -0.31664804 0.7898345 11642540 -0.99962401 -0.0060118185 0.026754513 0.02479746
2.4832151 -0.29836598 0.7893452 11576747 -0.99686819 -0.013503937 0.077919476 0.025538389
2.4868991 -0.28277066 0.78147179 12300470 -0.992203 -0.01564298 -0.12364712 0.039326772
2.4669573 -0.27837682 0.78584504 11379879 -0.99193394 0.067076974 0.10755318 0.018692778
2.468498 -0.26022378 0.78535914 11379881 -0.99868089 0.020155543 0.047226429 0.030584872
2.4878697 -0.24351987 0.78787726 11313834 -0.99992257 -0.0097500505 0.0077388734 0.028235238
2.4726741 -0.22656459 0.78033173 12037298 -0.97224683 -0.028620997 -0.2322004 0.050043412
2.4894211 -0.22523782 0.78738797 11182502 -0.99689066 -0.065743752 0.043437615 0.035314228
2.4731197 -0.2057647 0.78390157 11050916 -0.97803146 -0.089487508 0.18827251 0.027762102
2.4918811 -0.20953627 0.78287917 12102832 -0.99203354 -0.03419232 -0.1212452 0.047378607
2.4751475 -0.19020578 0.78103042 12102578 -0.98742223 -0.021027604 0.15670094 0.034893658
2.4746602 -0.18761165 0.78341573 11182502 -0.98455828 -0.11261213 0.13402829 0.028753499
2.4763842 -0.17202637 0.78137982 12036785 -0.9830429 -0.037632119 0.17947285 0.029399974
2.4762008 -0.16945863 0.7829299 11116709 -0.98960364 0.005582056 0.1437134 0.026688004
2.4776812 -0.1525763 0.78208661 11510953 -0.99926102 -0.009461835 0.037254624 0.025012311
2.4788575 -0.13566759 0.7820785 11839408 -0.99821562 -0.023462201 -0.054910995 0.021120396
2.4804583 -0.11624384 0.78195012 11313576 -0.99980837 -0.0046292213 0.019020995 0.020998161
2.4643683 -0.098955005 0.78069443 11707820 -0.99445087 -0.0083109094 0.10487352 0.021462457
2.4655967 -0.080897212 0.78104144 11642027 -0.99843597 -0.031516522 0.046177451 0.024860596
2.4838045 -0.062949985 0.78347594 11642029 -0.98958462 0.043012176 -0.13737608 0.031977303
2.4680536 -0.04478161 0.78173548 11576234 -0.99545282 0.058634717 -0.075071752 0.038198441
2.4692819 -0.026723802 0.7820825 11444648 -0.9945516 0.090007126 0.052591104 0.032428224
2.4875145 -0.0084117809 0.78452396 11509673 -0.99192482 0.12682755 -3.71188e-05 0.034356248
2.4887512 0.0097676059 0.78487331 11313316 -0.99069351 0.13372187 0.02539577 0.029625926
2.4729674 0.027449578 0.78312355 11247521 -0.99832404 0.051554125 0.026292728 0.032389827
2.4912245 0.046126395 0.78557205 11247523 -0.99483794 -0.0036484918 0.1014109 0.020667369
2.4924612 0.064305797 0.78592139 11181476 -0.99980342 -0.016344018 0.011224748 0.025086943
2.4766526 0.081622928 0.78416455 11049890 -0.99991971 -0.0051099625 -0.011598797 0.028358452
2.477881 0.099680752 0.78451157 10984351 -0.99960375 -0.024527537 -0.013811589 0.026301309
2.4791093 0.11773857 0.78485858 11049372 -0.99706143 0.035105139 -0.06808944 0.028810361
2.4803379 0.13579634 0.7852056 11049374 -0.9865284 0.1121135 -0.1191316 0.020498279
2.4815662 0.15385416 0.78555262 10786970 -0.99152082 0.03503396 -0.1251363 0.021246849
