# .PCD v0.7 - Point Cloud Data file format
VERSION 0.7
FIELDS x y z rgb normal_x normal_y normal_z curvature
SIZE 4 4 4 4 4 4 4 4
TYPE F F F U F F F F
COUNT 1 1 1 1 1 1 1 1
WIDTH 538
HEIGHT 1
VIEWPOINT 0 0 0 1 0 0 0
POINTS 538
DATA ascii
2.4662263 0.42964005 0.76323342 9601417 -0.94801396 0.10290758 -0.30113056 0.038672991
2.4869792 0.42187089 0.76727736 10786454 -0.99975061 -0.019041535 -0.011672609 0.01525682
2.4958408 0.43043318 0.76572526 10588821 -0.99867135 -0.026167655 0.044393092 0.047774553
2.4871233 0.44047287 0.76791126 10654616 -0.99925166 -0.036323238 -0.013297969 0.017802451
2.4967792 0.44840434 0.76769328 10523030 -0.99540997 -0.04815926 -0.082702942 0.066647232
2.4857535 0.45547515 0.768058 9996431 -0.99035037 -0.043161806 -0.13169332 0.025147166
2.4658983 0.46711776 0.7639358 9470344 -0.96731061 -0.089736015 -0.23718697 0.028384004
2.4977176 0.46637538 0.76966131 10325649 -0.96249759 -0.013118685 -0.27097306 0.046490274
2.4874115 0.47767684 0.76917899 10523028 -0.99448007 0.0037236188 0.10485975 0
2.490747 0.47062907 0.76211542 9338758 -0.90165883 0.28455454 -0.32563803 0.027982863
2.4657345 0.48585659 0.76428699 9338758 -0.96776807 -0.057420604 -0.24521001 0.030670809
2.4894722 0.48973122 0.76272339 9338504 -0.93776739 0.11862698 -0.32637402 0.031947166
2.4875555 0.49627882 0.76981282 10457235 -0.99472231 -0.093461454 0.042338677 0.016664853
2.4655704 0.50459546 0.76463819 9207170 -0.95260024 0.031928115 -0.30254489 0.040901814
2.4881973 0.50883347 0.76333135 9076102 -0.94045508 -0.11155654 -0.32109112 0.024057232
2.4654064 0.52333421 0.76498938 9075584 -0.94675714 0.051125746 -0.31786335 0.040282562
2.4704053 0.52959239 0.76797932 10325392 -0.99765188 -0.0011627902 -0.068479612 0.027892446
2.4869225 0.52793556 0.76393932 8944514 -0.94338477 -0.017030727 -0.33126315 0.04250624
2.4652424 0.54207307 0.76534057 9075584 -0.93198502 0.082921915 -0.35288522 0.029207369
2.4650784 0.56081194 0.76569182 9009791 -0.94461757 -0.020721095 -0.32751837 0.043965798
2.4843729 0.56613988 0.76515532 9009791 -0.99545288 0.061898541 -0.072403066 0.02525462
2.4815831 0.57197016 0.76114613 9996686 -0.99800611 -0.019073086 -0.060167409 0.047760215
2.4654822 0.58559668 0.76052237 9930891 -0.99412525 -0.093645647 -0.054273028 0.048458919
2.4708345 0.58500999 0.76986772 10062477 -0.99699926 0.028812559 0.071849406 0.029709656
2.483098 0.58524197 0.76576328 8813180 -0.99989671 0.0037665181 0.013874046 0.011400297
2.4647505 0.59828967 0.7663942 8746617 -0.9897539 -0.063450567 -0.1279113 0.041329648
2.482635 0.60599959 0.76571262 9273218 -0.99695271 -0.077979483 0.0021016325 0.01807127
2.4645865 0.61702853 0.76674539 8943485 -0.99451214 -0.050582219 -0.091581114 0.039019533
2.4673333 0.62103957 0.7644037 9864841 -0.98695982 -0.10432041 -0.122587 0.03691392
2.4805484 0.62344629 0.76697922 8746619 -0.99766415 -0.06713295 0.012627472 0.00041351171
2.4663405 0.63726425 0.76672053 9338499 -0.98907501 -0.046266969 -0.13996449 0.04518272
2.4792736 0.64254838 0.76758718 8746619 -0.99389136 -0.10030746 -0.046025977 0.012195593
2.4667215 0.65549439 0.76786649 9075839 -0.99047536 0.08259096 -0.11016972 0.031210162
2.4779987 0.6616506 0.76819515 8680826 -0.99501669 -0.011502657 -0.099042624 0.021414541
2.4640946 0.67324507 0.76779896 8680824 -0.99091351 0.038435977 -0.12889189 0.041764189
2.4767239 0.68075269 0.76880318 8615033 -0.97855431 0.074881345 -0.19189651 0.025917888
2.4754491 0.69985485 0.76941115 8549240 -0.96410316 -0.048565779 -0.26104897 0.03483063
2.4637666 0.71072274 0.7685014 8549240 -0.98484212 0.030916458 -0.17067571 0.044290669
2.4636028 0.72946161 0.76885259 8482934 -0.99130106 -0.018183568 -0.13035195 0.048988115
2.4874363 0.75492561 0.76170021 9338755 -0.99634445 -0.023823736 -0.082037762 0.038239248
2.4632747 0.76693928 0.76955497 8285809 -0.95939708 -0.15623274 -0.23483738 0.035115555
2.488184 0.77034158 0.76516676 9207170 -0.99197179 -0.055279639 -0.11373726 0.049329836
2.4631107 0.78567815 0.76990616 8153971 -0.95281535 -0.15563433 -0.26061624 0.035506714
2.4720383 0.78262264 0.76451576 9075582 -0.94993114 -0.22640057 -0.21534526 0.032505821
2.4879086 0.79455602 0.76145542 9206911 -0.94405442 -0.20587422 -0.25763762 0.056820337
2.4729638 0.80034417 0.76645648 9141118 -0.96136963 -0.0074555804 -0.27515969 0.046126578
2.4880526 0.81315792 0.76208925 9207170 -0.96999049 0.0034574617 -0.24311821 0.061443958
2.4708989 0.84426653 0.7603094 9075584 -0.99375135 -0.059544887 -0.09440732 0.052854087
2.4710422 0.86273909 0.76093888 9075584 -0.99577528 -0.015198603 -0.090557501 0.024539966
2.5073392 0.86809665 0.76016194 8943998 -0.99658108 0.067976557 0.046961609 0.049675416
2.4813707 0.8788811 0.76034635 7957105 -0.98747736 0.14036302 -0.072019055 0.037225187
2.4711852 0.88121158 0.76156831 8878205 -0.98977995 -0.10865047 -0.092362404 0.030416109
2.5082779 0.88606781 0.76213002 8878203 -0.9926725 -0.12031274 -0.011230425 0.070093967
1.596836 0.89723599 0.7660225 2690567 -0.10469318 -0.98755521 -0.11736366 0.046409614
1.6587812 0.89481533 0.76199019 6109732 0.29035443 -0.95432198 -0.07045538 0.0014368386
2.4713283 0.89968413 0.76219779 8812412 -0.99375755 -0.074570909 -0.082977414 0.036960378
2.4800868 0.89812005 0.76095867 7825517 -0.97737223 0.031910859 -0.20910598 0.040523134
1.5967296 0.90939337 0.76625037 2690567 -0.084093794 -0.98416853 -0.15601462 0.042186677
1.6267103 0.90249622 0.7637043 3676687 -0.12188417 -0.97113174 -0.20505476 0.033791497
1.9549631 0.90382129 0.76919138 6177845 0.006429527 -0.97746265 -0.21101043 0.012865268
2.5092163 0.90403873 0.76409805 8615801 -0.87340009 -0.38291728 -0.30090979 0.049323134
1.635049 0.9144544 0.76178515 3478541 -0.7218529 -0.67359465 0.15874106 0.1161582
1.7143501 0.91380531 0.76372802 6176293 0.23307528 -0.96907419 -0.0810626 0.0034963279
1.7239269 0.91919971 0.76925302 5714463 0.18934421 -0.98098379 -0.042657442 0.007753503
1.7645495 0.91609633 0.76288646 6767401 0.11546524 -0.99059814 -0.073370546 0.0041088182
1.9793798 0.91611123 0.76896924 6506297 -0.14196171 -0.98986763 -0.003011154 0.015640451
1.9947214 0.91602403 0.76424235 6442313 -0.10568383 -0.99432862 -0.01189917 0.013996489
2.475137 0.91775775 0.76219916 8220275 -0.97461927 -0.097205542 -0.20166436 0.038510025
2.4919894 0.91518563 0.76332563 8484215 -0.83827275 -0.46862414 -0.27872971 0.039782509
1.634192 0.92729557 0.76219386 2821638 -0.75002354 -0.61979276 0.23091494 0.095487721
1.7414939 0.92935312 0.76175624 5911585 0.11426127 -0.99300009 -0.02992106 0.0063581797
1.8149784 0.92835581 0.76994324 5978400 0.029458568 -0.99953651 0.0076818974 0.0073705553
1.8280959 0.9238013 0.76443142 7030313 0.10626256 -0.99418163 -0.017641405 0.0047358125
1.8336352 0.92468101 0.76150686 5977376 0.060754258 -0.99797791 -0.018682202 0.010225951
1.9373379 0.92137456 0.76636541 6110779 -0.23811485 -0.96736234 0.086668834 0.016276238
1.9681435 0.92541832 0.7669484 6506040 -0.16647439 -0.9857316 0.024890231 0.015611967
1.9722383 0.92329949 0.76193196 5912623 -0.22885668 -0.96779215 0.10489539 0.018213708
2.4758179 0.92648429 0.76268709 8418424 -0.88772523 -0.38520122 -0.25211906 0.05460852
1.7583145 0.93045765 0.76624447 5845790 0.056791242 -0.99828064 0.014511786 0.0048718164
1.7689003 0.93075544 0.76992446 5976606 0.068743832 -0.99625582 -0.052428108 0.0061271177
1.7872066 0.93236399 0.76221907 6173734 0.03658906 -0.99677491 0.071421869 0.0056345379
1.7956587 0.93199658 0.76442653 6043171 -0.0091084931 -0.99968088 0.023561703 0.0070301788
1.8188969 0.93254799 0.76268017 6833449 0.12259296 -0.99201584 -0.029590033 0.0035828378
1.8384562 0.93086874 0.76486498 6043428 -0.0030727512 -0.99995559 -0.0089139733 0.012472176
1.8956581 0.93168724 0.76590765 7030828 0.040515203 -0.99917465 0.0029390792 0.0039679757
1.9049239 0.93289798 0.76749742 6108960 -0.0079606688 -0.99900186 -0.043953069 0.007133083
1.9246478 0.93064225 0.76290429 5977384 -0.15707622 -0.98753804 0.0097884797 0.018775735
1.9366703 0.93459499 0.76171196 6042401 -0.14823905 -0.98836476 0.034064557 0.012535913
1.9584759 0.93284762 0.76637685 6044462 -0.21132626 -0.97581679 0.055881523 0.013344694
2.4745665 0.93661356 0.76282001 7957873 -0.9672401 -0.11432706 -0.22666244 0.049782611
1.633335 0.94013667 0.76260257 3018758 -0.62344056 -0.7705549 0.13254057 0.12312916
2.4767435 0.94420582 0.76462775 8352631 -0.98053741 -0.070761651 -0.18313728 0.068479784
2.4739962 0.95546919 0.76344091 7957873 -0.9631018 -0.013573327 -0.26879486 0.035941873
2.4947848 0.96871328 0.76918745 8221045 -0.90569037 0.4191896 -0.063285097 0.04477023
2.4734259 0.97432494 0.76406181 7891310 -0.95954025 -0.013879754 -0.28122929 0.047557808
2.4728551 0.99318081 0.76468271 7891054 -0.9767071 -0.040574767 -0.21070583 0.046225443
2.4722848 1.0120363 0.76530361 7759724 -0.99915105 0.029378342 -0.028882165 0.049057916
2.4723296 1.0289918 0.76660401 8220275 -0.96947604 0.24508372 0.0070822616 0.036438759
2.4710991 1.0327924 0.76524502 7299173 -0.99567324 -0.0087316204 -0.092512943 0.059346654
2.5121107 1.0319556 0.76027554 8088689 -0.91635162 -0.25736597 -0.30669612 0.084375776
2.469815 1.0520314 0.76585734 7101796 -0.96904486 0.000108568 -0.246885 0.035755683
2.4957948 1.0600297 0.76148444 7760492 -0.92187333 -0.14660245 -0.35868835 0.045036267
2.4685311 1.0712702 0.76646966 7101794 -0.96915388 -0.045991488 -0.24212737 0.025329808
2.4967268 1.0778722 0.76343834 7891562 -0.89686722 -0.24636379 -0.36733389 0.04312779
2.4727588 1.0844095 0.76849234 7825519 -0.99406135 0.044467796 -0.099320881 0.044031605
2.4672472 1.0905092 0.76708198 6904413 -0.97752333 -0.0024982817 -0.21081239 0.026369438
2.4976585 1.0957148 0.7653923 7759975 -0.81274652 -0.47553641 -0.33661282 0.061886258
2.4659634 1.1097481 0.76769429 6838620 -0.97311509 0.075140305 -0.21771771 0.022164373
2.4729018 1.1028819 0.76912183 7693931 -0.9874056 0.14086331 -0.072026037 0.038773205
2.4814487 1.1057889 0.76473975 7497573 -0.80689609 -0.4955388 -0.32149649 0.062992796
2.4652259 1.115621 0.76406074 7496290 -0.7450549 -0.57775348 -0.33330786 0.046580501
2.4775591 1.1128796 0.76109737 6772316 -0.99510139 0.075184032 -0.064192057 0.024879226
2.4646792 1.128987 0.76830661 6640982 -0.97729307 0.10476235 -0.18418233 0.01893872
2.4639957 -1.3017526 0.77914572 11246996 -0.93560702 -0.35208365 0.02601061 0.039188284
2.4641387 -1.28328 0.77977514 11443605 -0.96181083 -0.26797214 -0.055776417 0.063414253
2.4468861 -1.2561238 0.77721632 11377812 -0.97791517 0.063722208 -0.19905165 0.069371223
2.4822774 -1.2013259 0.77011603 10719629 -0.95138866 0.26083747 -0.16377857 0.052111108
2.4978149 -1.2008219 0.77426243 10260110 -0.94274402 -0.33056614 0.044269234 0.014825378
2.4821136 -1.1825869 0.77046722 10785424 -0.98757339 0.13597855 -0.078794897 0.035035703
2.4789572 -1.1744382 0.77016962 10260109 -0.9667502 -0.24396016 0.076665051 0.014213169
2.4819496 -1.1638482 0.77081841 10851733 -0.99813282 0.0451186 -0.041173026 0.03015475
2.4777441 -1.156263 0.77074808 10523279 -0.98919618 -0.14482921 0.022704868 0.010507927
2.4817855 -1.1451093 0.7711696 10917526 -0.99746305 0.066372015 -0.025734846 0.024190636
2.4765313 -1.1380879 0.7713266 10654868 -0.99756306 -0.068545461 0.01301668 0.0022809925
2.4812496 -1.1252002 0.77084267 11707038 -0.96003658 0.15949348 -0.22998171 0.052138723
2.4753182 -1.1199127 0.77190506 10524051 -0.99033362 -0.1383394 0.010082535 0.01066006
2.4984128 -1.1129422 0.77389777 12431528 -0.90660739 0.14745897 -0.39537191 0.073892228
2.4741054 -1.1017376 0.77248353 11048347 -0.98191047 -0.1840459 -0.044485811 0.023687154
2.4814577 -1.1076316 0.77187204 11245465 -0.97660089 0.20240414 -0.072686613 0.046129938
2.4990702 -1.0954276 0.77540439 11773860 -0.9602083 0.10270103 -0.25971615 0.068814419
2.4990602 -1.0766239 0.77590042 5982802 -0.95878053 -0.0044078394 -0.28411359 0.071677685
2.4716794 -1.0653872 0.77364045 9077653 -0.99976385 -0.018577043 -0.011274368 0.039739341
2.4809656 -1.0514151 0.77292562 11838110 -0.94139522 0.16893354 -0.291953 0.049529403
2.4988482 -1.0567479 0.77581257 12562862 -0.93383306 0.20926149 -0.29011279 0.065594383
2.4704664 -1.0472121 0.77421892 11706518 -0.99670702 0.061978098 0.05228658 0.027075674
2.4808018 -1.0326762 0.77327681 11312285 -0.95327502 0.1205317 -0.2770178 0.036086075
2.4989932 -1.0380166 0.77645087 12629425 -0.95392936 0.1747365 -0.24389753 0.061246496
2.4692535 -1.029037 0.77479738 10984097 -0.99839324 0.044481725 0.035105292 0.02266225
2.4989214 -1.0211407 0.77768791 11575710 -0.96704441 0.13975157 -0.21282555 0.036415461
2.4680405 -1.0108618 0.7753759 11378591 -0.99325883 0.045523461 -0.10660476 0.027741129
2.4991384 -1.019285 0.77708912 12760758 -0.95143527 0.13922489 -0.27456772 0.084886514
2.4668276 -0.99268675 0.77595437 11378078 -0.97104621 0.1295519 -0.2007125 0.033045683
2.4804738 -0.99519861 0.77397919 11772835 -0.97334063 0.20156553 -0.10945015 0.034833401
2.4990098 -0.98260558 0.77838057 12497073 -0.98326528 0.049500752 -0.17532571 0.033172585
2.4656146 -0.97451162 0.77653283 11576486 -0.95789272 0.15689537 -0.24046919 0.026138941
2.4989996 -0.9638018 0.77887654 12497072 -0.9786489 0.15411589 -0.1359951 0.030840904
2.4989896 -0.94499815 0.77937257 12562866 -0.95739222 0.16201483 -0.23906343 0.054007016
2.493062 -0.87665677 0.77102095 11773095 -0.91861862 0.25482032 -0.30200413 0.045749083
2.4918318 -0.85822332 0.77160764 11970474 -0.87018931 0.34086835 -0.35578004 0.035213716
2.4906015 -0.83978987 0.77219433 12102062 -0.91855067 0.19515714 -0.34377077 0.06354931
2.5068336 -0.82684833 0.77740914 12102578 -0.9171322 0.19220561 -0.34917846 0.06458544
2.4881411 -0.80292284 0.7733677 12234164 -0.95023191 -0.10506786 -0.29329178 0.077020235
2.4869111 -0.78448939 0.77395439 12234166 -0.95633918 -0.071103394 -0.28347793 0.076310493
2.4856808 -0.76605582 0.77454108 12102580 -0.94542217 0.31678864 0.076301821 0.070133708
2.5018783 -0.75259775 0.77977234 12102578 -0.94087267 0.33254501 0.064595021 0.071873896
2.5182085 -0.68626863 0.77320278 13813707 -0.9970423 0.063560426 -0.043205984 0.036798611
2.499929 -0.66273803 0.77058828 13813707 -0.9941172 -0.078017034 -0.075129569 0.03913381
2.5000741 -0.64400661 0.77122653 13880015 -0.95970583 -0.15914376 -0.23159873 0.061126102
2.5002191 -0.62527514 0.77186489 13813709 -0.9540962 -0.095565148 -0.28384456 0.045001827
2.5047164 -0.60700154 0.77147365 12892608 -0.99685591 -0.031656705 -0.072637238 0.02385699
2.5041652 -0.58828992 0.7720902 12892608 -0.99603087 -0.032541957 -0.082846157 0.026239377
2.5065737 -0.57007569 0.77163392 12234424 -0.97206706 -0.073394783 -0.22293264 0.023701787
2.5006545 -0.56908095 0.77377969 13682123 -0.99796253 0.054745268 0.0327668 0.022089928
2.5030627 -0.5508666 0.77332342 13023938 -0.99797589 0.011942129 -0.062463198 0.024167649
2.5025117 -0.53215504 0.77393997 13089989 -0.98995256 0.041121952 -0.13528791 0.037151724
2.5019605 -0.51344335 0.77455664 13155781 -0.98664641 0.01283459 -0.16237029 0.036172494
2.5014095 -0.49473178 0.77517319 13024195 -0.98762017 -0.07431975 -0.13814121 0.025428398
2.5008581 -0.47602016 0.7757898 12958146 -0.99481618 -0.055418458 -0.085262008 0.020852659
2.499089 -0.45792463 0.77520341 12233913 -0.9976691 -0.067165636 0.012049009 0.00086451072
2.5015247 -0.45669234 0.77760935 13616330 -0.98451781 0.10752881 -0.13842809 0.023973161
2.4978416 -0.4392328 0.77579832 12233913 -0.99764037 -0.067549929 0.012280552 0.00086414907
2.5016699 -0.43796089 0.77824765 13616330 -0.9907093 0.1053339 -0.08602228 0.022691108
2.4965942 -0.42054102 0.77639323 12168120 -0.99681896 -0.070702516 -0.036785044 0.012234799
2.4927366 -0.41676441 0.77015305 12365753 -0.99920887 0.038587287 -0.0096295178 0.023328772
2.5018148 -0.41922948 0.77888596 13616330 -0.99564219 0.078166574 -0.050859198 0.021538036
2.4953468 -0.40184918 0.77698815 12233399 -0.99854577 -0.038249638 -0.037992004 0.012007222
2.50196 -0.40049806 0.77952421 13484744 -0.99960619 0.02793251 0.0026856291 0.018745223
2.4925714 -0.39788842 0.7705068 12234167 -0.99795425 0.063314438 -0.0088702859 0.021223892
2.4940994 -0.38315734 0.77758306 12036534 -0.99998587 -0.0028860548 -0.0044617071 0.01313935
2.4924061 -0.37901247 0.77086055 12102581 -0.99988997 0.013640569 -0.0058285929 0.011576413
2.4848325 -0.3607032 0.77765375 13418953 -0.9797253 -0.19601302 -0.041438978 0.049170386
2.4925466 -0.36230102 0.77469623 12101812 -0.99994498 -0.01037738 -0.001523387 0.017521475
2.4918399 -0.34351709 0.77517056 12036018 -0.99899513 -0.039522801 -0.021135878 0.024730854
2.4851205 -0.32349929 0.77892148 13155779 -0.99710882 -0.047561973 -0.05926083 0.076118439
2.4919107 -0.3223846 0.77192187 11905202 -0.99680018 0.068503164 -0.041191574 0.018962173
2.4891095 -0.30838999 0.77996278 11904432 -0.99402779 -0.10820413 0.014163794 0.013595079
2.4917455 -0.30350864 0.77227569 12035507 -0.99939829 0.0073322589 -0.033901051 0.022264337
2.4915802 -0.28463265 0.77262944 11904432 -0.97877026 -0.1714157 -0.11236289 0.023004908
2.491415 -0.2657567 0.77298319 11970224 -0.98346061 -0.06647294 -0.16848348 0.034579031
2.4910848 -0.22800475 0.7736907 11838639 -0.98026395 0.094336413 -0.1737332 0.029432433
2.4909196 -0.20912883 0.77404451 11904432 -0.97692412 0.1243652 -0.17364512 0.027771609
2.4907544 -0.19025286 0.77439827 11707823 -0.99734354 0.019587969 -0.07015904 0.018244971
2.4905891 -0.17137688 0.77475202 11576237 -0.99982268 0.017837161 -0.0060390793 0.011520933
2.4904239 -0.15250093 0.77510577 11444651 -0.99882877 -0.0094766365 0.047447611 0
2.4957724 -0.1403306 0.77137226 11247272 -0.98521179 -0.038659103 -0.16692282 0.051241159
2.4902589 -0.13362494 0.77545959 11247272 -0.99342066 -0.11172039 -0.025179926 0.017718779
2.4900937 -0.11474898 0.77581334 11247271 -0.99702662 -0.075819477 0.013760225 0.033833701
2.5021706 -0.1188767 0.77047026 12432056 -0.98797303 0.078544587 -0.13319185 0.02265677
2.4932592 -0.1026734 0.77257085 11049893 -0.99385732 -0.023697998 -0.10810191 0.053025305
2.5023155 -0.10014528 0.77110851 12366263 -0.99232984 0.07203383 -0.10046232 0.022292992
2.4899285 -0.095873021 0.77616709 11115685 -0.99965811 0.022180244 0.013847053 0.035241071
2.5024607 -0.08141385 0.77174681 12432058 -0.99848759 0.054666072 -0.0058538541 0.01773672
2.4897633 -0.076997064 0.77652085 11247272 -0.99582624 0.053170234 0.074182652 0.022337483
2.4907463 -0.065016218 0.77376938 10984099 -0.99060553 -0.0060107289 -0.13661854 0.035505265
2.5026057 -0.062682435 0.77238512 12366010 -0.99445063 -0.09692093 0.040917899 0.027086083
2.489598 -0.058121108 0.77687466 11246502 -0.99786401 0.057587761 0.030838728 0.010876646
2.4894896 -0.046187606 0.77436864 10984100 -0.97589195 0.072154097 -0.2059824 0.027797241
2.5027509 -0.043951008 0.77302337 12300470 -0.92888284 -0.36906418 -0.031119028 0.038872022
2.4894331 -0.039245144 0.77722842 10984099 -0.98858494 -0.14646579 0.035321146 0.015163044
2.4876583 -0.024316764 0.77437133 11313320 -0.95941335 -0.26912406 -0.08425115 0.023624644
2.4708903 -0.0016964823 0.77387422 10852513 -0.95138782 -0.30657858 0.029509544 0.016497714
2.4856591 -0.007880237 0.77342784 11247784 -0.99998325 -0.0057369922 -0.00074459484 0.032277338
2.4707265 0.017042365 0.77422541 10983330 -0.98823458 -0.14868854 0.035836477 0.018590549
2.4855003 0.01051959 0.77471149 11247527 -0.99978995 -0.011017445 0.017282424 0.026052773
2.4844632 0.029126815 0.7767657 10655392 -0.99472249 -0.090029456 -0.049212888 0.011225479
2.503155 0.02911941 0.77786553 11774126 -0.99440837 0.073490612 0.075835705 0.039747316
2.4705625 0.035781212 0.7745766 10720927 -0.99887925 -0.046672251 -0.0078723207 0.011451687
2.4859059 0.030583832 0.77246553 11970994 -0.99110609 -0.049434707 -0.12355164 0.042810421
2.4851823 0.047319271 0.77727878 11050148 -0.99797618 -0.0200381 0.060348861 0.025406606
2.4703984 0.054520063 0.77492779 10655645 -0.99073529 -0.091592774 -0.10027165 0.022057181
2.4687669 0.067138039 0.77061361 11905199 -0.96756673 0.19939794 -0.15509711 0.041188758
2.4850233 0.065719105 0.77856243 10984612 -0.99532878 -0.070465937 0.065993711 0.025274813
2.4702344 0.073258914 0.77527899 10589341 -0.97862285 -0.070526443 -0.19319251 0.022572787
2.4835157 0.086001202 0.7764653 11050147 -0.99940753 0.03364851 0.0072419355 0.022864258
2.4700706 0.091997765 0.77563024 10654364 -0.97978246 0.064035073 -0.18954107 0.022252293
2.4794371 0.10444123 0.77916282 10392220 -0.99768883 -0.066941097 0.011655175 0
2.4864821 0.10499175 0.77500105 11773613 -0.99715358 -0.039321877 0.064332031 0.038330473
2.4699066 0.11073662 0.77598143 10457755 -0.99205929 0.080988854 -0.09622483 0.021643378
2.4694695 0.12601554 0.77441728 10984099 -0.99988484 -0.014798794 0.0033640766 0.022321612
2.4781804 0.12326983 0.77976209 10326170 -0.97926056 -0.20259966 -0.0014613299 0.015263978
2.4695785 0.1482143 0.77668381 10391192 -0.99880666 -0.0095117819 0.047904707 0.00086444314
2.4867702 0.1421957 0.77626872 11642027 -0.99424243 0.061426967 -0.087798953 0.046877775
2.4576659 0.15948489 0.77610356 10194583 -0.932661 -0.33442247 -0.13529611 0.022312259
2.4891136 0.15662874 0.77140212 11378855 -0.99309403 0.045481361 0.10814667 0.023439374
2.4694147 0.16695313 0.777035 10326169 -0.99880773 -0.0095508238 0.047874752 0.00086442119
2.4869144 0.16079767 0.77690262 11510695 -0.97987443 0.0014605131 -0.19960997 0.045423996
2.4564183 0.17817673 0.77669847 10128791 -0.96426386 -0.23730254 -0.11782545 0.025809895
2.4870584 0.17939965 0.77753651 11444902 -0.98093021 -0.086239733 -0.17418009 0.047705241
2.4900522 0.17459984 0.77337015 11247782 -0.98722827 0.012941919 0.15878521 0.014217509
2.4692507 0.18569198 0.77738619 10128790 -0.99556345 0.030838365 0.088895686 0.012778613
2.4551709 0.19686855 0.77729338 10062744 -0.99498981 -0.09070237 -0.042051591 0.01338351
2.4697685 0.19644579 0.77501982 11378855 -0.99064583 -0.06839291 -0.11808193 0.042327777
2.4909906 0.19257088 0.77533817 11116194 -0.99491394 -0.0041108876 0.1006448 0.022478489
2.4690866 0.20443083 0.77773738 10194067 -0.99653059 -0.0068583204 0.082944334 0.01370591
2.4539235 0.21556039 0.7778883 10062998 -0.99940133 -0.033104233 -0.010055919 0.013862293
2.4699116 0.2149183 0.77564931 11313062 -0.98936856 0.041431431 -0.13940346 0.039170895
2.4919293 0.21054198 0.7773062 11050401 -0.99310768 0.046409272 0.10762603 0.023352811
2.4689226 0.22316968 0.77808857 10062997 -0.99840629 -0.0019359977 0.056401525 0.026419779
2.4928677 0.22851308 0.77927423 11050403 -0.98901898 0.095113553 0.11311451 0.021339109
2.4526761 0.23425223 0.77848321 9931411 -0.99798644 -0.061240371 -0.016516633 0.014671146
2.4874907 0.23520561 0.77943814 11247269 -0.98895353 0.1046429 -0.10498007 0.040869981
2.4687588 0.24190854 0.77843976 10193813 -0.99509275 0.034892961 -0.092590451 0.029461633
2.4514287 0.25294405 0.77907813 9931409 -0.98959392 0.03950898 -0.13835819 0.033103716
2.4685948 0.26064739 0.77879101 10128020 -0.99265277 -0.071110763 -0.097896487 0.028251188
2.4501812 0.27163589 0.77967304 9799825 -0.9731732 0.14157796 -0.18135504 0.033050265
2.4684308 0.27938625 0.7791422 9996175 -0.99884075 -0.046610523 -0.012024458 0.012984772
2.4703407 0.27033597 0.77753764 11050144 -0.99668473 0.062031817 -0.052645948 0.035169043
2.4682667 0.29812509 0.77949339 9930384 -0.99880826 -0.0095518511 0.04786377 0.00086442265
2.4681027 0.31686395 0.77984458 9864591 -0.99880791 -0.009091544 0.047960076 0.00086423545
2.4832821 0.31467968 0.77164024 9799055 -0.95280713 0.30332345 0.012386055 0.028744087
2.4707699 0.3257536 0.77942604 11049374 -0.9975642 0.026612796 -0.064477921 0.034370724
2.4820163 0.33364508 0.77224386 9733263 -0.98139608 0.19129835 -0.016331453 0.043596596
2.4948235 0.33845866 0.77348375 10721436 -0.96696675 0.18212247 -0.17834434 0.025948152
2.4807506 0.35261044 0.77284747 9601928 -0.94600016 -0.27393392 -0.17333196 0.064072326
2.4957621 0.35642982 0.77545178 10589593 -0.98071051 0.10308697 -0.16607219 0.029805604
2.479485 0.37157577 0.77345109 9536135 -0.91005367 -0.34096196 -0.23568493 0.05605023
2.4967005 0.37440085 0.77741981 10589593 -0.99276328 0.051733781 -0.10837301 0.022803284
2.4976392 0.39237195 0.77938783 10523798 -0.99268359 0.052066561 -0.10894218 0.022642978
2.4578159 0.42511079 0.77048117 9273481 -0.99010456 0.093394049 -0.10474005 0.047497213
2.4565594 0.44393942 0.77108043 9273479 -0.95478386 0.2625415 -0.13949847 0.059617613
2.4731565 0.46640268 0.77646917 9207686 -0.9328472 0.24574555 -0.26344869 0.048920233
2.4718907 0.48536804 0.77707285 9141893 -0.90484118 0.087188959 -0.41672602 0.063104287
2.4986563 0.48434642 0.77162933 10391442 -0.95972592 0.018135756 -0.28035223 0.035892863
2.4706252 0.50433332 0.77767646 9141893 -0.88644868 -0.15569635 -0.43585259 0.03414318
2.4995947 0.50231743 0.77359736 10325649 -0.96060497 -0.0847027 -0.26469529 0.034549501
2.4850681 0.51560968 0.77160192 10194064 -0.97731042 -0.13501421 -0.16320409 0.037502974
2.4693594 0.52329874 0.77828008 8944768 -0.90509152 0.023136046 -0.42458701 0.043346778
2.4833684 0.53418112 0.77471101 10062479 -0.91919208 -0.28612873 -0.27058512 0.041755687
2.4680936 0.5422641 0.7788837 9009793 -0.94079703 0.19852456 -0.27475265 0.045257702
2.4861441 0.55205417 0.77418971 10128014 -0.99637371 -0.058381781 -0.061895624 0.053899981
2.4681809 0.56578541 0.77593589 9996684 -0.99754208 -0.023655415 -0.065956458 0.058088485
2.4881318 0.57068676 0.77234834 10128272 -0.99916005 0.0099303713 0.039757967 0.03626591
2.483083 0.58400714 0.77004731 8943998 -0.95124328 -0.11413594 -0.28654715 0.048939213
2.470032 0.60122842 0.77981728 9930891 -0.98606628 -0.14860365 -0.074768372 0.052676741
2.48842 0.60789073 0.77361608 9996938 -0.99250972 0.032382362 0.11779623 0.030035835
2.488564 0.62649262 0.77424991 9996427 -0.99516535 -0.092319295 0.033514574 0.042380702
2.488708 0.64509463 0.77488381 9864841 -0.99268222 -0.11262383 -0.043565959 0.033843532
2.488852 0.66369659 0.7755177 9799305 -0.97357529 -0.050063286 -0.22281142 0.046972658
2.4701097 0.67420405 0.77022582 9536387 -0.99705774 0.073919162 -0.020294473 0.024285531
2.4889963 0.6822986 0.77615154 9733512 -0.94409937 0.058870606 -0.32436192 0.044363044
2.4710352 0.69192547 0.77216649 9536133 -0.99429578 0.10637492 0.0077655171 0.025721021
2.4820921 0.69726294 0.77216989 8549240 -0.9849301 -0.017285543 -0.17208697 0.040950537
2.4719608 0.709647 0.77410722 9470340 -0.99402577 0.10296264 -0.036214635 0.04273368
2.4891403 0.70090055 0.77678543 9601926 -0.92300642 0.00028810833 -0.38478437 0.034937132
2.4741743 0.71895701 0.77001911 8483447 -0.9619956 -0.079975657 -0.26109087 0.03323216
2.4892843 0.71950257 0.77741933 9667208 -0.91637647 -0.026311863 -0.39945197 0.045578238
2.4728863 0.72736853 0.77604795 9404547 -0.99341589 0.079232618 -0.082747005 0.045121714
2.4728994 0.73805916 0.77062708 8417656 -0.95868647 -0.11245856 -0.26129183 0.032688595
2.4894283 0.73810452 0.77805316 9601415 -0.91626078 -0.12371715 -0.38099909 0.047253609
2.4716246 0.75716132 0.77123505 8417143 -0.98032683 -0.15334551 -0.12427569 0.024232032
2.4855845 0.75529873 0.77595913 8877949 -0.94187272 -0.10501774 -0.31913474 0.038549669
2.4735012 0.76627338 0.77804583 9207682 -0.95832717 -0.1095579 -0.26382956 0.052072641
2.47035 0.77626342 0.77184302 8285557 -0.99527216 -0.083129413 -0.050228179 0.01184668
2.4724081 0.78820795 0.77679175 9272963 -0.90950388 -0.11891422 -0.39832413 0.062922709
2.469075 0.79536557 0.77245098 8088689 -0.99772257 -0.066347688 0.012155392 0.00041371706
2.4629469 0.80441701 0.77025735 8088178 -0.99713749 -0.01511294 -0.074084654 0.022800749
2.4725511 0.80668044 0.77742124 9141377 -0.96187091 -0.0034079049 -0.27348268 0.068017304
2.4678004 0.81446767 0.77305901 8154230 -0.99769288 -0.066696584 0.012669302 0.00041348574
2.4627829 0.82315588 0.77060854 8022896 -0.9995476 0.029258125 -0.0069750589 0.011301897
2.4726942 0.82515293 0.77805066 9207168 -0.96528745 0.030449511 -0.25940898 0.062976599
2.4909794 0.82386905 0.77102858 9075582 -0.89132118 0.41497862 -0.18259057 0.032288339
2.4665253 0.83356988 0.77366698 8088691 -0.99769163 -0.066794924 0.012241668 0.00041382026
2.4626188 0.84189469 0.77095973 8088178 -0.99726528 -0.056757253 -0.047335364 0.024753669
2.4728372 0.84362555 0.77868015 9009791 -0.99094516 0.048391547 -0.12524374 0.054225709
2.5100763 0.84800655 0.7757926 8878975 -0.93934584 0.28632995 -0.18879773 0.037561867
2.4652507 0.85267204 0.77427495 8022644 -0.99300492 0.092930816 -0.072836749 0.019468762
2.4624548 0.86063355 0.77131099 7956592 -0.99215478 -0.0710219 -0.10288247 0.031818032
2.4729805 0.8620981 0.77930963 9009791 -0.99183989 -0.0090635596 -0.1271676 0.028200187
2.5110147 0.86597747 0.77776062 8813182 -0.97931308 0.17043725 -0.1090736 0.036432706
2.4631333 0.87557328 0.77327251 7890800 -0.98742586 0.085386336 -0.13303855 0.027027164
2.4731236 0.88057059 0.77993906 8878203 -0.99850404 -0.027829174 0.047067147 0.023559779
2.5119534 0.88394862 0.77972865 8747389 -0.95315069 -0.21853688 -0.20915416 0.055419967
1.6192049 0.89768523 0.77333492 3807755 -0.065486722 -0.98170924 -0.17876938 0.042031087
1.6683719 0.89893657 0.7764616 6044961 0.2723611 -0.95978343 -0.068082571 0.0018252854
2.462127 0.89811122 0.77201337 7825004 -0.99403507 0.024389451 -0.10629901 0.032150462
2.4947069 0.89523917 0.77884442 8550008 -0.87874806 -0.42883307 -0.20953307 0.047277361
1.6500864 0.90311795 0.77117699 4991254 0.063460857 -0.99709028 -0.042234067 0.023304822
2.4785168 0.90667301 0.77810067 8550008 -0.87205952 -0.41368306 -0.261493 0.049353324
1.6678996 0.91995317 0.7740503 5057047 -0.32303751 -0.88403243 0.33783638 0.087494552
1.9936118 0.9169597 0.77656329 6178370 -0.20256375 -0.97731119 0.061893694 0.02195273
2.4559498 0.91090703 0.77800405 8746619 -0.97110581 -0.23142767 -0.058263563 0.030730871
2.4619629 0.91685009 0.77236456 7759211 -0.99949688 -0.031347893 -0.0048396774 0.013651949
1.6947806 0.92207342 0.77067107 5517084 0.11702574 -0.98995215 0.079370767 0.007072913
1.7072444 0.92259705 0.77704644 5451804 0.20739745 -0.97704637 -0.048649244 0.0066808569
1.7304158 0.92866528 0.77018249 5779997 0.087464191 -0.99602813 0.016671052 0.0029198832
1.7577436 0.92432958 0.77428693 6438951 0.11924561 -0.99025583 -0.071929805 0.0041658129
1.7752453 0.92055756 0.77828711 6899502 0.13471581 -0.98893851 -0.062066726 0.0057270965
1.8110052 0.92722809 0.77385354 6899242 0.16262305 -0.98550338 -0.048341483 0.0032167954
1.8343003 0.92442542 0.7754544 5977889 0.035659354 -0.9972527 -0.064926773 0.0091778981
1.8598398 0.92705619 0.77163702 6306088 0.034115307 -0.99872887 -0.037106626 0.0096444488
1.9724506 0.92282242 0.77736694 5978166 -0.20580551 -0.9679848 0.1436996 0.014009578
1.981361 0.92634076 0.7734859 5847087 -0.2107641 -0.97276968 0.096425124 0.021057054
2.4560919 0.92925006 0.77862912 8549238 -0.96034729 -0.23264265 -0.15365735 0.05060783
2.4601514 0.92908061 0.77670681 7431275 -0.96296883 -0.1262255 -0.23823974 0.038844325
1.796711 0.93446863 0.77897012 6043169 0.025172168 -0.99968266 -0.00096089928 0.0063673621
1.8172901 0.9339214 0.77234501 6108970 -0.018523466 -0.99885893 0.044021338 0.0071866172
1.8386545 0.93042296 0.77928716 6043428 -0.035082884 -0.99872166 0.036391124 0.0091158757
1.8672708 0.9301123 0.7732991 6832937 0.029910164 -0.99863243 -0.042881429 0.0049727783
1.8741691 0.93123537 0.77308285 6043678 0.064774446 -0.99541885 -0.07032492 0.0077207931
1.8971386 0.93119758 0.77993941 6898987 0.023236329 -0.9990353 -0.037263229 0.0032161875
1.9024465 0.93430042 0.77105844 6240548 -0.021260377 -0.99776846 -0.063293263 0.015199101
1.9256936 0.93151188 0.77526605 6372652 -0.079430901 -0.99663901 0.02003557 0.01404741
1.9373728 0.9343251 0.77644318 5977374 -0.10416345 -0.99455178 0.0041063363 0.012429669
1.9594679 0.9345538 0.77965283 5979175 -0.164188 -0.98477334 0.057130169 0.016997818
2.4617989 0.93558896 0.77271575 7627625 -0.99881214 -0.0086924089 0.047945559 0.00086411741
2.4575553 0.9478879 0.77828455 7892080 -0.96090513 -0.10065691 -0.25793305 0.045472957
2.4389133 0.95893925 0.77667207 8483447 -0.95462471 0.017508982 -0.29729643 0.055037357
2.4616349 0.95432782 0.77306694 7561832 -0.99880737 -0.0091949813 0.047950905 0.00086436537
2.4576018 0.96728486 0.77792281 7496552 -0.95530683 -0.023177126 -0.29470631 0.022552947
2.4614711 0.97306663 0.77341813 7430246 -0.99882221 -0.0091891242 0.047641613 0.00086462754
2.461307 0.99180549 0.77376938 7364966 -0.99502879 -0.053488921 0.084003791 0.011712694
2.5139091 0.99389428 0.77393818 8089459 -0.96244472 0.10850447 -0.24885117 0.094525285
2.4550521 1.0054891 0.77913874 7364966 -0.98452216 -0.052709818 -0.16714631 0.049517546
2.461143 1.0105444 0.77412057 7233380 -0.99277818 -0.10406737 0.05967753 0.030433659
2.5148475 1.0118654 0.77590621 7892078 -0.94775283 -0.20420913 -0.24507795 0.10407317
2.4537773 1.0245912 0.77974671 7299173 -0.98454928 -0.052320119 -0.16710873 0.049504869
2.460979 1.0292833 0.77447176 7298660 -0.9968527 -0.015953384 0.077654652 0.032795321
2.4975803 1.0222408 0.77504933 7957871 -0.86562788 -0.33049825 -0.37611079 0.094901189
2.4813709 1.0328132 0.77433127 7957873 -0.86557001 -0.29830006 -0.40225059 0.077328958
2.4608152 1.0480222 0.77482295 7167589 -0.9931916 0.032559935 0.11184971 0.019905517
2.4861112 1.0527592 0.77330077 7957615 -0.98503351 0.0084850369 -0.17215379 0.046532862
2.4606512 1.0667609 0.77517414 7036003 -0.99211437 0.10659729 0.065924995 0.020495545
2.483222 1.0682561 0.77821267 7891562 -0.92593873 -0.16620503 -0.33913633 0.061086629
2.4900696 1.0735857 0.77096343 7957101 -0.99578685 0.022843231 -0.088807844 0.042689368
2.4604871 1.0854998 0.77552533 6904417 -0.99057323 0.1248432 0.05638231 0.018630072
2.4679065 1.0959451 0.77936912 7497573 -0.7606588 -0.58324814 -0.284991 0.05602875
2.4603231 1.1042385 0.77587652 6838109 -0.9972803 0.064906724 0.034917094 0.011174976
2.4905019 1.1293917 0.77286506 7758946 -0.97788757 0.19578503 -0.073513329 0.026817961
2.4982026 -1.3945634 0.78295165 10984335 -0.98047006 -0.19583422 0.018098623 0.030913454
2.4983475 -1.3758321 0.78358996 11115410 -0.98006076 -0.19768108 0.020077765 0.033244584
2.484482 -1.3515795 0.78602487 9865088 -0.95260406 -0.30181682 0.038107205 0.024446195
2.4984927 -1.3571007 0.78422821 11115155 -0.97860599 -0.19084513 0.076866619 0.031970114
2.467025 -1.3238338 0.78245366 9865090 -0.95082641 -0.30435002 0.057447828 0.030728949
2.481245 -1.3292972 0.78169143 11181203 -0.95042348 -0.30438486 0.063601926 0.030196177
2.4668622 -1.3052244 0.78280246 10061701 -0.96609509 -0.24670072 0.076152049 0.03572074
2.4666994 -1.286615 0.78315121 10126981 -0.99255627 -0.12175134 0.0029415637 0.035917994
2.4665365 -1.2680057 0.78349996 10259332 -0.99482 -0.080945969 0.06148972 0.042492948
2.4653993 -1.2478657 0.78244144 10785676 -0.9936313 0.074512199 -0.084526569 0.068281062
2.4662106 -1.230787 0.78419751 10259078 -0.96521145 0.14579229 -0.21705185 0.073244683
2.4645679 -1.2278624 0.78166354 11640471 -0.98130965 0.19117421 0.021995658 0.066991702
2.4660478 -1.2121776 0.78454632 10194055 -0.93878686 0.16981152 -0.29973888 0.069057561
2.464711 -1.2093899 0.78229296 11575191 -0.99848795 -0.054484159 0.0073086396 0.046602763
2.48317 -1.2016689 0.78883445 10653836 -0.89384037 0.25992593 -0.36536002 0.054222435
2.464854 -1.1909174 0.78292245 11969696 -0.98324627 -0.064079084 -0.1706481 0.055967364
2.4830062 -1.1829299 0.78918564 10653838 -0.89943331 0.2808986 -0.33483675 0.068027057
2.4649971 -1.1724448 0.78355193 11970464 -0.97113156 0.07586313 -0.22615992 0.0621977
2.4792078 -1.1750013 0.78838402 10259597 -0.95592797 -0.28867888 0.05353706 0.015762843
2.4828422 -1.1641911 0.78953683 10720401 -0.93748194 0.12161452 -0.32609445 0.05079601
2.4651401 -1.1539724 0.78418136 12102050 -0.87356257 0.21834488 -0.43498743 0.043538529
2.4779947 -1.156826 0.78896254 10391695 -0.97835863 -0.20691238 0.0012995499 0.013421116
2.4826782 -1.1454523 0.78988802 10851734 -0.98033094 0.087227911 -0.17703836 0.030125922
2.4652832 -1.1354997 0.78481084 12298661 -0.79338443 0.37245488 -0.48147541 0.064013593
2.4767818 -1.1386509 0.78954101 10392723 -0.99757636 -0.068344451 0.013055762 0.0022802744
2.4654262 -1.1170272 0.78544033 12430249 -0.83535242 0.14623086 -0.52990836 0.092175841
2.4831181 -1.0874714 0.78993171 12498099 -0.79350591 0.17036381 -0.58422989 0.095082834
2.456583 -1.0771253 0.78673482 10852247 -0.98092812 -0.12628789 -0.14775459 0.070705093
2.5177042 -1.0076876 0.78103709 12892344 -0.94643182 0.12202886 -0.29895782 0.056460522
2.4819343 -0.96286577 0.78183603 11575718 -0.9640491 0.12523243 -0.23436341 0.027472338
2.4807129 -0.94456142 0.78241861 11838379 -0.97709543 0.13031891 -0.16823064 0.028313164
2.5173306 -0.93274617 0.78356916 12365744 -0.93064582 0.13993074 -0.33810911 0.047213778
2.4794912 -0.92625719 0.78300118 11772584 -0.9969449 0.0037468085 -0.078018144 0.019166049
2.5162065 -0.91426563 0.78388572 11575456 -0.9343428 0.052323181 -0.35251376 0.063291565
2.4782696 -0.90795273 0.78358376 11444132 -0.9997431 -0.018735372 -0.01275781 0.011814546
2.5000088 -0.90689647 0.78091884 12760758 -0.9130441 -0.09202145 -0.39734441 0.029373182
2.5160401 -0.89525259 0.78424203 11838377 -0.93815529 -0.089425877 -0.33446622 0.05753988
2.4770482 -0.88964862 0.78416634 11509923 -0.99488252 0.035102103 -0.094745092 0.027377522
2.5001538 -0.88816506 0.78155708 13220794 -0.92559683 -0.13878815 -0.35214809 0.055465907
2.4758265 -0.87134427 0.78474891 11707302 -0.97696728 0.10864549 -0.18366058 0.03175633
2.4976001 -0.8701331 0.780518 12167594 -0.9687869 -0.22609669 -0.10164795 0.038232844
2.5002987 -0.86943358 0.78219539 13418688 -0.96357661 0.0011879188 -0.2674298 0.06701456
2.4746048 -0.85303992 0.78533149 11904683 -0.90479255 0.17956498 -0.38614354 0.04078766
2.5004439 -0.85070217 0.7828337 13616069 -0.99415374 0.031593326 -0.10324851 0.036234584
2.5157073 -0.85722643 0.78495473 12298930 -0.9888733 -0.14472735 -0.034405015 0.038017627
2.4972696 -0.83238113 0.78122556 12496561 -0.99764478 -0.0067186784 -0.068262972 0.036030114
2.5005889 -0.83197081 0.78347194 13682375 -0.99882269 0.046922848 0.012309701 0.02331901
2.4971044 -0.81350517 0.78157932 12562352 -0.99415171 0.064628392 -0.086519353 0.043488786
2.5007341 -0.8132394 0.78411019 13747914 -0.99879742 0.047352001 0.012708886 0.024198545
2.4969394 -0.79462922 0.78193307 12759733 -0.99902612 0.024929594 -0.036406007 0.038893886
2.500879 -0.79450798 0.78474849 13748429 -0.99777478 0.048522927 -0.045727096 0.028566521
2.5150418 -0.78117412 0.78638011 12562611 -0.99922377 0.010400639 -0.037996851 0.037663087
2.5010242 -0.77577651 0.7853868 13747914 -0.99894512 -0.045646802 0.0050045401 0.021596719
2.496609 -0.7568773 0.78264064 12496822 -0.99611765 -0.082588792 0.030475447 0.022028444
2.5011692 -0.75704503 0.78602505 13813450 -0.99802411 -0.042449173 0.046324633 0.012443397
2.4964437 -0.73800135 0.78299439 12496568 -0.99547207 -0.083221748 0.045928884 0.010219656
2.5013144 -0.73831362 0.78666335 13813198 -0.99438417 0.0030087407 0.10578826 0.00086332811
2.5180583 -0.73888117 0.78501189 12168371 -0.94012439 0.3386609 0.038406353 0.055270355
2.5168109 -0.72018939 0.7856068 12102580 -0.99564385 0.067861676 -0.063938595 0.04462539
2.4962785 -0.71912539 0.78334814 12168371 -0.99884498 -0.0089986492 0.047198854 0
2.5014594 -0.7195822 0.78730166 13551048 -0.99494016 0.059609506 0.080875203 0.01354756
2.4961135 -0.70024937 0.7837019 12365750 -0.9988519 -0.0085248826 0.047140364 0
2.5016046 -0.70085084 0.78793991 13682634 -0.99804109 0.055883143 0.028127238 0.02393825
2.5155635 -0.7014975 0.78620172 12365236 -0.97757232 -0.14011581 -0.15722556 0.040908858
2.4959483 -0.68137342 0.78405571 12497338 -0.99883008 -0.00901883 0.047509991 0
2.5017495 -0.68211943 0.78857815 13682634 -0.99913758 0.028300757 -0.030385936 0.0303676
2.5143161 -0.68280572 0.78679663 12234166 -0.96437156 -0.26369748 -0.021240303 0.034489546
2.4957831 -0.66249746 0.78440946 12431797 -0.99981654 -0.018731955 -0.0040004589 0.011220252
2.5018945 -0.66338795 0.78921646 13748427 -0.96369845 -0.21072911 -0.16394678 0.054547127
2.4956841 -0.65978438 0.78272641 12168886 -0.99317807 -0.093290821 0.069958381 0.05700922
2.4950316 -0.6424216 0.78404021 12431543 -0.99991202 -0.0020845958 0.013099958 0.039351828
2.5020397 -0.64465654 0.78985476 13814220 -0.96499562 -0.18782957 -0.18303952 0.048124854
2.4771943 -0.62042153 0.78100318 12562361 -0.99883807 -0.0085443845 0.047429811 0.012506625
2.5105739 -0.62673026 0.78858137 12102840 -0.99165523 0.12798226 0.015508783 0.040618427
2.4936275 -0.60498297 0.78498483 12299703 -0.99977618 -0.01769053 -0.011600934 0.029318281
2.4850557 -0.58457249 0.78854674 13616843 -0.98673755 0.09820006 -0.12925084 0.031056523
2.4951224 -0.58699363 0.78582454 12364982 -0.99753404 0.046604343 0.052477386 0.010898549
2.5080788 -0.58934647 0.7897712 12168374 -0.97323066 -0.20500405 -0.10390087 0.033589631
2.4949572 -0.56811768 0.78617829 12430775 -0.99883968 -0.009232739 0.047266375 0
2.4882512 -0.54840833 0.78627121 12299960 -0.98045158 -0.045268264 -0.1914826 0.044313002
2.494792 -0.54924166 0.78653204 12628154 -0.99975014 -0.020660535 -0.0085360231 0.011249047
2.4946268 -0.53036571 0.78688586 12628154 -0.99942034 -0.019562282 -0.027863003 0.021818614
2.4870124 -0.52984565 0.78686202 12234679 -0.98604679 0.034789447 -0.16279265 0.041872147
2.4944618 -0.51148975 0.78723961 12693948 -0.99955863 -0.014021911 0.026190735 0.013317812
2.4942966 -0.49261379 0.78759336 12431546 -0.99938577 0.020379366 0.028508902 0.012170283
2.4941313 -0.47373784 0.78794718 12299960 -0.99973017 -0.022842059 0.0042238538 0.024273722
2.4939661 -0.45486188 0.78830087 12234166 -0.99354035 -0.092027947 0.066395953 0.021025892
2.4938009 -0.43598592 0.78865469 12299189 -0.99805367 -0.025557339 0.056882784 0.024314703
2.4936359 -0.41710994 0.78900844 12299189 -0.99874109 0.022544516 0.044810161 0.036109474
2.4934707 -0.39823395 0.78936219 12168374 -0.99843335 0.055487242 0.007214997 0.02320114
2.502105 -0.38176662 0.78016251 13418953 -0.99865282 -0.051343024 -0.007513158 0.027125636
2.4933054 -0.37935799 0.78971601 12167603 -0.99800837 -0.058670472 0.02317561 0.022926079
2.5023952 -0.34430379 0.78143907 13287365 -0.98729604 -0.11912109 -0.10515061 0.061253957
2.4747345 -0.33933878 0.78627115 12036018 -0.9921245 -0.028918715 -0.12187166 0.033729743
2.5085979 -0.32919994 0.78424877 11904434 -0.99565238 -0.091040686 -0.019696575 0.026877629
2.5026853 -0.30684093 0.78271562 13221831 -0.98942196 0.12453206 -0.074404061 0.07349734
2.4878621 -0.28969818 0.78055769 11838639 -0.99841672 -0.039609291 -0.039939083 0.013284449
2.5028305 -0.28810948 0.78335392 13024452 -0.99324948 0.098690979 0.060955442 0.057144798
2.4866147 -0.27100635 0.78115261 11970225 -0.99669403 -0.070395611 -0.040566381 0.013370873
2.4740787 -0.26438338 0.78767592 11904431 -0.96926159 -0.13850877 -0.20334056 0.035210766
2.5029755 -0.26937807 0.78399217 13089986 -0.99885505 0.00050877035 -0.047836989 0.048746735
2.4853673 -0.25231451 0.78174752 11838641 -0.99983299 -0.016161906 -0.00853357 0.025854267
2.4739146 -0.24564454 0.78802711 11904432 -0.97053045 0.04325372 -0.23706499 0.034983557
2.4856968 -0.24909137 0.78145695 13089988 -0.99601221 -0.08188875 -0.035411686 0.048007958
2.4849803 -0.23205602 0.78221667 12300217 -0.99348754 -0.11101901 -0.025639534 0.034170058
2.4844286 -0.21340911 0.78283107 12168887 -0.99765116 -0.068073273 -0.0076269493 0.031419989
2.4838769 -0.1947622 0.78344542 12168629 -0.99436629 0.037323505 -0.099209927 0.034750439
2.4803774 -0.17754714 0.78412718 11378858 -0.98597956 0.14662689 -0.079655722 0.035563
2.5037007 -0.17572095 0.78718358 12826816 -0.95555818 0.0009107627 -0.29480153 0.025282741
2.4864171 -0.15608148 0.78462636 12695230 -0.94806981 0.031757973 -0.31647289 0.027261324
2.4972887 -0.15974247 0.78964216 11444651 -0.99484056 -0.001404485 -0.10144156 0.062671274
2.4865613 -0.1374795 0.7852602 12694969 -0.9648903 0.061817363 -0.2552751 0.029340843
2.4766352 -0.12147163 0.78591192 11181479 -0.98581213 -0.097105943 -0.13691224 0.059572071
2.4867053 -0.1188775 0.78589404 12432056 -0.97406459 0.12683146 -0.18738183 0.017173793
2.4753878 -0.10277979 0.78650683 11180709 -0.9842276 -0.033245608 -0.17375511 0.057813849
2.504281 -0.10079525 0.78973675 12366263 -0.9738462 0.16110475 -0.16021499 0.020775864
2.4741402 -0.084087968 0.78710175 11049893 -0.9827342 0.061570697 -0.17447788 0.050278343
2.4874256 -0.0258676 0.78906345 12168884 -0.89473766 -0.4425002 0.060317799 0.048035629
2.4701331 -0.0073930938 0.78646648 12103093 -0.96065885 -0.27745378 -0.012407303 0.067080148
2.4702761 0.011079438 0.7870959 12103093 -0.96773303 -0.2020513 -0.15055932 0.059119478
2.4704192 0.029551979 0.78772539 11970994 -0.98245817 -0.11293919 -0.14839381 0.058812987
2.4705622 0.048024509 0.78835487 11905201 -0.98099655 0.086015962 -0.17391697 0.075451061
2.4707053 0.066497043 0.7889843 11773613 -0.95123094 0.28959191 -0.10628376 0.04586767
2.4890347 0.082625255 0.78112864 11576747 -0.96834803 -0.094517745 0.23101637 0.030207498
2.4899733 0.10059632 0.78309667 11445161 -0.98185956 0.0012914035 0.18960522 0.023244048
2.4728842 0.1174917 0.78218842 11445161 -0.98403043 -0.005180845 0.17792498 0.024536418
2.4918504 0.13653852 0.78703272 11444648 -0.99263668 -0.030345254 0.11726717 0.027347233
2.4769239 0.14209846 0.78036135 10260376 -0.93915629 -0.34027511 -0.046886906 0.021531757
2.4927888 0.15450956 0.78900075 11313062 -0.99073517 0.042327829 0.12904328 0.021973753
2.4938064 0.24648412 0.78124225 11050144 -0.99639052 -0.025431506 0.080988474 0.030039236
2.4876347 0.2538076 0.78007197 11115937 -0.99102169 0.1297148 -0.03240655 0.035931282
2.4947448 0.26445517 0.78321028 10918304 -0.99518853 -0.097862259 0.0047783107 0.038319048
2.4776213 0.28017819 0.78230119 10918558 -0.96270877 -0.2682358 -0.035234321 0.027442195
2.4668713 0.29272729 0.78515548 9799055 -0.90231073 0.38813525 -0.18758029 0.033752244
2.4785531 0.29802066 0.78425515 10786970 -0.98748434 -0.1125696 -0.11046658 0.049704235
2.4879227 0.29101157 0.7813397 11115167 -0.99190176 -0.12700672 -0.00051485747 0.035254117
2.4880669 0.30961356 0.7819736 11049374 -0.99938095 -0.034531813 0.0067293346 0.033670247
2.4794848 0.31586319 0.78620911 10786972 -0.97747576 0.10851119 -0.18101513 0.032889862
2.4679389 0.33560279 0.78019577 9733262 -0.99880636 -0.0094019324 0.047932342 0.00086441252
2.4804168 0.3337056 0.78816307 10721436 -0.96341711 0.18084992 -0.19778997 0.023575708
2.4883549 0.34681752 0.78324133 10851993 -0.9963969 0.077133335 -0.035266031 0.028323358
2.4677749 0.35434166 0.78054696 9667723 -0.99952644 -0.02864584 -0.01123953 0.011704801
2.4618452 0.36804169 0.78755254 9601930 -0.86141711 -0.3498275 -0.36821374 0.066532902
2.4884989 0.36541945 0.78387523 10917788 -0.99157959 0.12932864 -0.0066345558 0.019715054
2.4676108 0.37308049 0.78089815 9667723 -0.99992877 0.00014019001 -0.011941187 0.011843638
2.4605885 0.38687029 0.78815186 9535883 -0.95737773 -0.26488885 -0.11515987 0.098401584
2.4886432 0.38402143 0.78450906 10720411 -0.99448007 0.0037236589 0.10485976 0
2.4674468 0.39181936 0.7812494 9536137 -0.99964643 0.025599232 -0.0071955472 0.011516494
2.459332 0.40569893 0.78875113 9339274 -0.99683273 -0.06566631 0.044860613 0.035043065
2.4887872 0.40262341 0.7851429 10720407 -0.99448121 0.0038824233 0.10484314 0
2.467283 0.41055819 0.78160059 9601417 -0.996189 0.049926195 -0.07151816 0.019942321
2.4985776 0.41034299 0.78135586 10458005 -0.98206526 -0.032346714 -0.18574597 0.032154616
2.467119 0.42929706 0.78195179 9535624 -0.99194324 0.019387754 -0.12519097 0.026165448
2.4889312 0.4212254 0.78577679 10720407 -0.99622083 -0.051569991 0.069890589 0.0077542118
2.4995162 0.428314 0.78332388 10392212 -0.95439869 -0.081140332 -0.28729665 0.037700146
2.4890752 0.43982738 0.78641069 10588823 -0.99649245 -0.017292241 0.081877097 0.0087312479
2.4568188 0.44335616 0.78994966 9338756 -0.98379254 0.15411535 0.091655172 0.036886238
2.4669549 0.4480359 0.78230298 9469831 -0.99219668 -0.012178693 -0.12408638 0.027121464
2.4823587 0.44286463 0.78241396 10326419 -0.88946104 -0.11214623 -0.4430376 0.041666381
2.4892194 0.45842937 0.78704453 10588821 -0.99964476 -0.0038972546 0.026366353 0.018557278
