# .PCD v0.7 - Point Cloud Data file format
VERSION 0.7
FIELDS x y z rgb normal_x normal_y normal_z curvature
SIZE 4 4 4 4 4 4 4 4
TYPE F F F U F F F F
COUNT 1 1 1 1 1 1 1 1
WIDTH 541
HEIGHT 1
VIEWPOINT 0 0 0 1 0 0 0
POINTS 541
DATA ascii
2.0416427 -0.59038484 0.16244283 9537156 -0.13292605 -0.026138309 0.99078125 0.0034150451
2.0306926 -0.57140106 0.16337961 9537154 -0.12375478 0.00030169822 0.99231279 0.0041184612
2.043514 -0.55862421 0.16214368 9668740 -0.12687895 0.047192942 0.99079496 0.0014998314
2.057338 -0.54590815 0.16081536 9537156 -0.13738541 0.037740596 0.98979843 0.0015816798
2.0453856 -0.52686357 0.16184455 9537156 -0.14281188 0.039731126 0.9889521 0.001525404
2.059221 -0.51394981 0.16051435 9602949 -0.14583609 0.037555672 0.98859566 0.0016997068
2.0611043 -0.48199141 0.16021335 9733766 -0.14155509 -0.015955836 0.98980182 0.0019326276
2.0620458 -0.46601224 0.16006285 9866119 -0.13843882 -0.030040212 0.98991525 0.0017560914
2.1543615 -0.45042938 0.16961564 8879226 -0.12205597 -0.01130705 0.99245882 0.0011126723
2.0390658 -0.42929959 0.16204119 9734280 -0.10510239 -0.054331921 0.99297613 0.0014557173
2.0270617 -0.41113716 0.1630787 9931142 -0.095341504 -0.042011239 0.9945578 0.0013558568
2.0115361 -0.39189413 0.16004544 9340035 -0.17081045 -0.030450618 0.9848333 0.0028369287
2.0409267 -0.39772147 0.16174379 9537156 -0.10532364 -0.049125273 0.99322391 0.0010341028
2.0538075 -0.38394064 0.16049841 9602949 -0.13073704 -0.054428063 0.98992193 0.0020002776
2.0059235 -0.36023265 0.16483036 9668999 -0.11773843 -0.035839275 0.99239773 0.0033349497
2.0307598 -0.34837645 0.16248757 9603206 -0.12731682 -0.041486438 0.9909941 0.0029559287
2.0316844 -0.33268631 0.16233978 9603719 -0.12715095 -0.033272691 0.9913252 0.0031625631
2.020637 -0.31535292 0.16329208 9407111 -0.12613788 -0.016315261 0.99187857 0.0042050574
2.1593406 -0.31679261 0.16957109 8418675 -0.11905604 -0.027193772 0.99251509 0.00091082294
2.0335336 -0.30130589 0.16204423 6511448 -0.13882206 -0.00036517507 0.99031734 0.0042553875
1.8917334 -0.29804593 0.16052939 8881546 -0.16453294 0.00097570475 0.98637116 0.0069627161
2.0224752 -0.28415507 0.16299823 9208448 -0.14295538 0.027441235 0.98934865 0.0038969759
2.0233946 -0.26855618 0.1628513 9340548 -0.14073713 0.021643352 0.98981041 0.0039075436
2.0243137 -0.25295722 0.16270438 9142915 -0.13701411 0.0204459 0.99035811 0.0040053735
1.98087 -0.24750873 0.1617761 8945279 -0.11048152 -0.017612282 0.99372208 0.0027926154
1.9814417 -0.23216699 0.16177098 8945277 -0.12982982 0.012622967 0.99145597 0.0019873495
2.0502305 -0.23983093 0.16025668 9208962 -0.13850687 0.0073515368 0.99033421 0.0047777435
2.0381563 -0.22285499 0.16130534 9011583 -0.1396365 0.012979641 0.99011779 0.004864994
2.0059619 -0.21902174 0.16058072 8813950 -0.11933525 0.046779994 0.99175131 0.0010676186
2.0390809 -0.20716481 0.16115755 9076863 -0.13118547 0.0056686751 0.99134159 0.0034936164
2.0279903 -0.19056158 0.16211671 9076862 -0.13386504 -0.0096247531 0.99095285 0.0021156785
2.0071187 -0.18797278 0.16057038 8616314 -0.119252 0.046721254 0.99176419 0.0010810999
1.9928485 -0.17249732 0.16529328 8945530 -0.10001742 -0.025312779 0.99466366 0.0026072669
2.0076973 -0.17244832 0.1605652 8616312 -0.12234588 0.047523133 0.9913491 0.0010717488
2.0082757 -0.15692386 0.16056004 8682869 -0.12234823 0.047523957 0.99134874 0.001071181
2.017803 -0.1586332 0.16293156 8945276 -0.11807685 -0.012092151 0.99293089 0.0022905299
2.0307479 -0.14376481 0.16167596 8879226 -0.11286603 0.0034695489 0.99360418 0.0026146888
2.1244926 -0.13228969 0.16920581 8945019 -0.13069718 0.024887122 0.99110997 0.0024337571
0.72437298 -0.10184328 0.16605414 14013666 -0.73359597 -0.62290782 0.27170363 0.019250525
0.71845883 -0.093567431 0.16374607 11909066 -0.82228154 -0.53364021 0.19768941 0.021037607
0.72221291 -0.09577024 0.16819072 10461104 -0.7403537 -0.62365144 0.25086901 0.019181626
0.7084747 -0.080495358 0.1652889 5327441 -0.87225777 -0.46482071 0.1520133 0.015802504
0.71348363 -0.085317448 0.16577643 6973304 -0.86761868 -0.48448935 0.11183865 0.018296726
0.70476472 -0.071108729 0.16230348 5985619 -0.8796283 -0.43804339 0.18539706 0.014126707
0.70379233 -0.066543281 0.16780074 5393227 -0.89532822 -0.40375942 0.18805768 0.023491189
0.58272892 -0.051101465 0.16989183 8551560 -0.18828224 0.9784416 -0.084864445 0.069296502
0.60904646 -0.054525536 0.16387436 9996684 -0.79960704 -0.027502831 -0.59989357 0.020295609
0.61088258 -0.051960047 0.16070381 9209229 -0.18847701 0.97839338 -0.084988266 0.069296725
0.70202041 -0.059798315 0.16447483 4537914 -0.92317629 -0.354204 0.14928202 0.028028842
0.58389384 -0.04641879 0.16974241 7105906 -0.18795393 0.97852308 -0.084652498 0.069293655
0.60572469 -0.043617066 0.16515961 5918543 -0.78957516 0.20242673 -0.57930511 0.030166656
0.69771016 -0.034094982 0.16572738 2696476 -0.90062916 0.42938542 0.067046702 0.056106042
0.69720423 -0.028113104 0.16545382 2762271 -0.89628255 0.39847112 0.19467485 0.023251466
0.70072412 -0.02489328 0.16596247 2827552 -0.91758096 0.37529498 0.13114448 0.028227299
0.70333135 -0.017794345 0.16621235 2958622 -0.94323474 0.30966306 0.12007081 0.022044264
0.70581305 -0.0074975779 0.16500802 2498072 -0.92543674 0.3558403 0.13017125 0.018034915
0.70877278 0.0010829429 0.16671284 2827037 -0.87485915 0.47795287 0.078628905 0.013308682
0.71354163 0.0082764532 0.16664736 2432281 -0.84511989 0.52859718 0.079732984 0.012914944
0.71774578 0.014115606 0.16632383 2366745 -0.80989683 0.55475032 0.19057623 0.020747328
0.72013253 0.019259412 0.16422984 2300692 -0.77877313 0.60084593 0.18026826 0.019487688
0.72573328 0.024219278 0.16595751 2563093 -0.71383774 0.6625222 0.22693604 0.024208847
0.73581809 0.03352122 0.16417098 2957079 -0.64785063 0.7232272 0.23923214 0.019675894
0.74140686 0.038449481 0.164141 2759443 -0.63561571 0.737176 0.22926901 0.018110227
0.7517854 0.047311828 0.16101125 2824209 -0.56461805 0.75894034 0.32437012 0.01134708
0.76587576 0.052644666 0.16149732 3021850 -0.4776285 0.80963111 0.34112808 0.01359921
1.9814034 0.089280412 0.16225676 8155761 -0.10037548 0.015614897 0.99482715 0.00167494
1.9960884 0.087299958 0.16396195 8419184 -0.10034855 0.028974146 0.99453038 0.00051320955
1.9819715 0.10453077 0.16225168 8089708 -0.11643095 0.011149969 0.99313623 0.0018421593
1.996986 0.10253382 0.16381848 8419184 -0.10035814 0.028934609 0.99453056 0.00050727377
1.9746488 0.11601914 0.1658296 8419186 -0.090956777 0.030373359 0.99539155 0.00074520154
1.9825399 0.11978114 0.1622466 8155501 -0.116386 0.011150406 0.99314147 0.0018465898
1.9755362 0.13107805 0.16568777 8353393 -0.090957128 0.030368097 0.99539173 0.00074527529
1.983108 0.13503149 0.1622415 8089967 -0.11642801 0.01115405 0.99313653 0.0018407232
1.9726248 0.14927858 0.16278028 8089708 -0.12880492 0.014362831 0.99156594 0.0019023472
1.999679 0.14823535 0.16338801 8353393 -0.10951525 0.019236304 0.99379897 0.0012000765
1.996304 0.16671817 0.16163799 8088940 -0.1293017 0.017156878 0.99145687 0.0016649214
2.0005767 0.16346923 0.16324455 8287087 -0.11012569 0.01555647 0.99379593 0.0012054067
1.9506345 0.17716371 0.16390744 8088940 -0.12739916 0.019595951 0.99165797 0.0018292202
2.0014744 0.17870307 0.16310108 8352882 -0.10892697 0.0087202005 0.99401152 0.0015282768
2.002372 0.19393697 0.16295758 8221807 -0.10084628 -0.0098088626 0.99485368 0.0019196384
2.0154245 0.21063064 0.16168475 8221805 -0.10523534 -0.025267331 0.99412632 0.0016143612
2.0221581 0.21566328 0.1604358 7498084 -0.12350953 -0.004340027 0.99233395 0.0021253757
1.9985905 0.2280851 0.16161753 8221803 -0.11015951 -0.021591028 0.9936794 0.002080413
2.0041673 0.22440463 0.16267061 6773846 -0.10355312 -0.028178904 0.99422473 0.0016408871
1.9817477 0.23649055 0.16469494 8353393 -0.10753718 -0.051506143 0.99286604 0.0010992929
1.9714783 0.24996029 0.16559067 8287600 -0.10606844 -0.053450048 0.99292123 0.0011926324
1.961199 0.26326269 0.16648801 8221807 -0.10479476 -0.044246942 0.99350911 0.0014886471
1.9732432 0.2799108 0.16530856 8155760 -0.10877834 -0.035278711 0.99343985 0.001850265
1.9741256 0.29488605 0.16516751 7892588 -0.13014571 -0.014881596 0.99138319 0.0015002475
1.975008 0.3098613 0.16502649 8089708 -0.14528885 0.030787269 0.9889102 0.0011610214
1.964709 0.32282907 0.16592698 8155499 -0.13006085 0.033273108 0.9909476 0.0013111499
1.9767729 0.33981186 0.16474438 8089708 -0.15181883 0.037066024 0.9877131 0.0009453604
1.9240521 0.3505342 0.16548023 7628904 -0.14374727 -0.01646691 0.98947746 0.001680109
1.9888467 0.35696191 0.16356027 8023915 -0.16218807 0.022243286 0.98650914 0.0011579656
1.9356997 0.36753413 0.16493101 7759975 -0.14379749 -0.016460519 0.98947024 0.0016748678
2.0019479 0.37448466 0.16227967 7958122 -0.16851564 0.016190628 0.98556602 0.0013673673
1.9473532 0.38470146 0.16438177 7759975 -0.1409594 -0.011919921 0.98994362 0.002328469
1.9906212 0.38707972 0.16327661 7892329 -0.1507607 0.010110961 0.9885186 0.0015401117
1.9803027 0.39971298 0.16418019 7892329 -0.13687612 0.0047747316 0.99057668 0.0016594258
1.9590131 0.40203622 0.16383247 7694182 -0.13748759 -0.021751484 0.99026465 0.0025478457
1.9811851 0.41468823 0.16403916 7826536 -0.13758843 -0.0060335328 0.99047112 0.0014458218
1.9820675 0.42966348 0.16389811 7826020 -0.14065671 -0.023134975 0.98978812 0.0016244522
1.9829499 0.44463873 0.16375706 7826020 -0.12933481 -0.040255271 0.99078357 0.0011115343
1.9501305 0.45924017 0.16435692 7365215 -0.13470566 -0.014487514 0.99077976 0.0021496925
1.9726065 0.45685351 0.16466464 7760227 -0.13703686 -0.026874501 0.99020135 0.0010985932
1.973484 0.47174513 0.16452439 7694434 -0.13175005 -0.022915725 0.99101812 0.00098698889
1.9743615 0.4866367 0.16438414 7694180 -0.13758238 -0.033193819 0.98993397 0.0010262922
1.9527582 0.49550545 0.16634583 7628389 -0.11131215 -0.015144302 0.99367017 0.0015586886
1.9536258 0.51022971 0.16620713 7562594 -0.12014747 -0.012510558 0.99267727 0.0013914444
1.9657438 0.52813286 0.16501589 7562337 -0.13551839 -0.017207405 0.99062544 0.0010737734
1.9666163 0.5429408 0.16487642 7365469 -0.13371621 -0.013230873 0.99093133 0.0011791679
1.9449685 0.55105656 0.1668452 7365469 -0.13455516 -0.0028617315 0.99090201 0.0013926559
1.9683614 0.57255667 0.16459747 7299422 -0.1381197 0.01731538 0.99026424 0.0010404278
1.969234 0.58736461 0.16445802 7102813 -0.13892037 0.027896777 0.9899106 0.0011715088
1.9588317 0.59857547 0.16537505 7102813 -0.13260792 0.0041631949 0.99115986 0.0016565267
1.9709791 0.61698049 0.16417907 7102043 -0.12458715 0.00039881584 0.9922086 0.0018058675
1.9718517 0.63178843 0.1640396 7102043 -0.12085101 -0.030945146 0.99218827 0.0022711523
1.9840139 0.65044439 0.16284131 6905434 -0.085782647 -0.032969937 0.99576825 0.0022819629
1.9415977 0.66453129 0.16670609 7035993 -0.11734389 -0.049713802 0.99184626 0.0017183988
1.9424559 0.67909575 0.16656891 6970200 -0.10867578 -0.040463772 0.99325341 0.0024699362
1.9217231 0.6856752 0.16845919 6838873 -0.089622065 -0.032209091 0.99545491 0.002482235
1.9328579 0.70395857 0.16735731 6773080 -0.11424717 -0.030661024 0.99297911 0.0029589536
1.955321 0.726744 0.16519046 6576471 -0.12969616 -0.007074513 0.99152857 0.002169379
1.9601287 0.72757971 0.16426745 6575701 -0.11112604 -0.3638683 0.92479777 0.081961043
1.9251184 0.74329466 0.16791649 6247506 -0.10207523 -0.039543189 0.99399048 0.002628532
1.9640961 0.74415284 0.16412535 6378579 -0.10038162 -0.2008677 0.97446179 0.042775735
1.8524456 0.75621623 0.16074008 6509906 -0.096598327 -0.054319598 0.9938401 0.0014215331
1.9500604 0.75295806 0.16480252 6050127 -0.14838618 -0.44487166 0.8832162 0.11043102
1.9362711 0.76188219 0.16681175 6378322 -0.092323363 -0.15159382 0.98412186 0.015229111
1.853263 0.77008867 0.16060942 6312268 -0.14517666 -0.30560303 0.94102633 0.065156452
1.9371244 0.77636313 0.16667537 6312527 -0.13484071 -0.27720809 0.9513011 0.046981268
1.961795 0.77230293 0.16425255 5984334 -0.10878947 -0.34093302 0.93377167 0.091643788
1.8540806 0.78396118 0.16047877 6180680 -0.16990496 -0.42633593 0.88846499 0.07842426
1.8445884 0.79327035 0.16139509 5918021 -0.21893819 -0.46028399 0.86035156 0.092206389
1.9076837 0.79262531 0.16816346 5983559 -0.11997534 -0.62694353 0.76977134 0.11703786
1.9379777 0.79084402 0.16653897 6180941 -0.15570268 -0.24916472 0.9558627 0.064866386
1.9517174 0.79743016 0.16478769 6180430 -0.12351393 -0.47796249 0.86965287 0.14963634
1.8454014 0.80706674 0.16126515 5720641 -0.19556266 -0.50319684 0.84175307 0.094999261
1.7095222 0.81166214 0.1637705 3943979 -0.56690949 0.80050588 0.19443238 0.23169495
1.9180087 0.81038326 0.1683072 5852228 -0.15067522 -0.48840231 0.85951161 0.14171134
1.714625 0.82567871 0.16236503 3483433 -0.57357019 -0.80921686 -0.12722196 0.16761112
1.772191 0.82887673 0.16023168 4470577 -0.041849427 -0.99889648 -0.021319421 0.082842842
1.9188526 0.82470441 0.16817231 5589056 -0.10403934 -0.83489078 0.54049349 0.15453731
1.9207981 0.82753229 0.1663588 5522750 -0.046611071 -0.97864479 0.20020433 0.11738212
1.941627 0.82222223 0.16532296 5786177 -0.10817135 -0.69205439 0.71369439 0.15985623
1.7135984 0.83719653 0.16212378 2365211 -0.74295294 -0.59710193 -0.30247352 0.11411179
1.7275094 0.83002985 0.16077688 3747119 -0.48370069 -0.66840255 -0.56504136 0.13891636
1.828218 0.83920771 0.16287002 4733749 -0.014572981 -0.99047112 0.13694741 0.10021857
1.9149183 0.8380574 0.16746829 5259579 -0.028373295 -0.96132278 0.27395898 0.1116074
1.7031921 0.84349108 0.16263899 1904147 -0.47017601 0.87323743 0.12802698 0.13755599
1.9102054 0.84863174 0.16887659 4864824 0.039527271 -0.99010658 0.13463505 0.12145165
1.7153563 0.85136962 0.16232091 1707535 -0.91589403 -0.072586678 -0.39480293 0.039400615
1.7206382 0.8683455 0.16323873 1444875 -0.8247261 0.1902021 -0.53258812 0.033084616
1.7030454 0.88205057 0.16094105 1641741 -0.9705354 -0.13215528 -0.20148467 0.05149075
1.7211246 0.88140309 0.16323438 1247498 -0.8559767 0.2129764 -0.47111034 0.038491763
1.6951307 0.8905701 0.16091149 1707019 -0.97444427 -0.087168813 -0.20702648 0.048302334
1.6952674 0.90344495 0.16104156 1510410 -0.99948192 0.012215257 -0.029777583 0.02422059
1.7757019 0.92310464 0.16020027 1247498 -0.40690428 -0.031757187 -0.91291863 0.042599387
1.7670157 0.93163311 0.1607103 1181962 -0.62349367 0.42704561 -0.65489525 0.026210591
2.2839515 -1.2367886 0.17841798 9010810 -0.1016077 -0.010719026 0.99476683 0.0018487751
2.1284928 -1.2269408 0.17369992 9076085 -0.12283777 0.0016729642 0.99242538 0.0025775109
2.1577866 -1.2255886 0.17120686 9669000 -0.09828534 0.022938883 0.99489391 0.0030955828
2.2850089 -1.2188472 0.178249 9142396 -0.082588688 0.021209154 0.99635804 0.0044810558
2.1587889 -1.208575 0.17104661 9734792 -0.098064259 0.024772249 0.99487174 0.0028593314
2.1597915 -1.1915616 0.17088637 9865098 -0.10374692 0.011695253 0.99453497 0.0030143901
2.2703874 -1.1929947 0.17925501 9142396 -0.11415026 -0.00012712204 0.99346352 0.0022369321
2.2714374 -1.175175 0.17908716 9273982 -0.09281072 0.025470987 0.99535799 0.0049863765
2.2724874 -1.1573552 0.17891932 9404798 -0.089479826 0.008341901 0.99595374 0.0051328889
2.1491034 -1.133599 0.17153788 10063758 -0.10775007 -0.0001536943 0.994178 0.0024211847
2.3582439 -1.1233279 0.17211705 9602177 -0.096239343 0.0109288 0.99529821 0.0038825891
2.1510961 -1.0997851 0.17121938 10195344 -0.10234472 -0.010640439 0.99469209 0.0019977628
2.2599227 -1.0965933 0.17959648 9405566 -0.094411135 0.0018053344 0.99553168 0.0036514064
1.6761765 -1.0779574 0.17146255 7827825 -0.44377065 0.81586671 0.37071443 0.059218843
2.1373985 -1.075804 0.17227641 10195346 -0.095101371 -0.012807685 0.99538517 0.0017250227
1.6769649 -1.0645794 0.17133655 7630700 -0.49368057 0.68062234 0.54132497 0.045402709
1.7039429 -1.0422714 0.17424566 7169379 -0.31501713 0.94514865 0.086361296 0.05562805
1.713267 -1.0338824 0.17379817 7104102 -0.46039042 0.88593167 0.056265131 0.046175946
2.2798376 -1.0326171 0.17774445 9667713 -0.0946538 0.0062109903 0.99549091 0.0013077469
1.7225962 -1.0253564 0.17335063 7169895 -0.54194868 0.8354286 0.091382645 0.04423612
2.2503712 -1.0018272 0.17987528 9602177 -0.11367978 0.021304898 0.99328899 0.0012525076
2.2524433 -0.96665931 0.17954406 9602179 -0.099304713 0.021196432 0.99483132 0.0015804266
2.2682657 -0.95500898 0.17826298 9667970 -0.11338317 0.015737928 0.99342668 0.0017292995
2.1453149 -0.94146007 0.17101109 10063757 -0.10490733 -0.0031763657 0.99447697 0.0034067405
2.2693086 -0.93731099 0.17809629 9537154 -0.10363452 0.011339917 0.99455082 0.0016191459
2.1463044 -0.92466706 0.17085293 10129551 -0.10720697 0.04604008 0.9931702 0.0046333862
2.2703514 -0.91961288 0.17792958 9602949 -0.10868941 0.0092653241 0.99403262 0.0016690004
2.1335166 -0.90233636 0.17184004 10063757 -0.10548906 0.056170035 0.99283284 0.0069372957
2.2713943 -0.90191489 0.1777629 9537154 -0.09942846 0.00071486784 0.99504453 0.0019028469
2.1217008 -0.88060671 0.17274722 9932171 -0.11177992 0.034506071 0.99313372 0.010588729
2.2724373 -0.88421679 0.17759621 9406341 -0.096043989 -0.0081174355 0.99534404 0.0017243101
2.135483 -0.86896336 0.17152572 9866379 -0.13015099 0.027890898 0.99110186 0.0093708979
2.2734802 -0.86651886 0.1774295 9405315 -0.096987128 -0.011394061 0.99522042 0.0016376805
2.1502626 -0.85749513 0.17022026 9603207 -0.13896154 0.022403516 0.99004436 0.0083798347
2.2596965 -0.8435716 0.17838475 8550518 -0.13610983 -0.029821508 0.99024481 0.0025291233
2.0979934 -0.80424565 0.17442283 9668487 -0.13376196 -0.05535752 0.98946619 0.0086006988
2.1156867 -0.74332625 0.17265165 9669000 -0.1050128 -0.022528075 0.99421567 0.0053957761
2.1028178 -0.72237223 0.17365173 9669000 -0.13749018 0.016654678 0.99036318 0.004451701
2.1314752 -0.71473038 0.1711849 9537414 -0.11553107 0.0030737217 0.99329919 0.0030481559
2.1186001 -0.69388276 0.17218596 9602694 -0.18499643 0.021759568 0.98249829 0.0040102438
2.135385 -0.6483798 0.17055997 9471363 -0.14575157 0.0027861355 0.98931736 0.0044421214
2.2402997 -0.64189333 0.17890617 9010810 -0.10927894 -0.022725375 0.99375135 0.00057067239
2.1086071 -0.62412411 0.17272636 9471363 -0.17011622 -0.033158127 0.98486602 0.0029474592
2.123456 -0.61147696 0.17140979 9405568 -0.13829885 -0.026490241 0.99003619 0.0025419418
2.1105371 -0.59137475 0.17241791 9273982 -0.1178827 -0.0053322818 0.9930132 0.0022397323
2.1263695 -0.56203353 0.17094412 9273729 -0.11650037 0.015107942 0.99307579 0.0014727032
2.2294614 -0.56896269 0.17939067 8813433 -0.11570825 -0.012870743 0.99319988 0.00057329662
2.1134317 -0.54225069 0.17195523 9339007 -0.13536051 0.027620722 0.9904114 0.0015506338
2.0975959 -0.52160817 0.17189859 8879226 -0.15677688 -0.030420063 0.98716551 0.0021922498
2.1283116 -0.52907121 0.17063364 9404800 -0.13223591 0.015563641 0.99109614 0.001349068
2.1389513 -0.51437503 0.17018083 8879226 -0.15390746 -0.024430798 0.98778319 0.0021384638
2.1153615 -0.5095014 0.17164677 9339007 -0.15482889 0.001130498 0.98794067 0.0018521501
2.1256518 -0.49478224 0.17076004 9075835 -0.15395647 -0.024461186 0.98777485 0.0021317415
2.130254 -0.49610889 0.17032319 9339007 -0.13984385 -0.0056698401 0.99015737 0.001776798
2.099417 -0.47272786 0.1718823 9141628 -0.15390946 -0.024436118 0.98778278 0.0021383674
2.1172912 -0.47675198 0.17133832 9339259 -0.14917037 -0.015882721 0.988684 0.0017098569
2.1182561 -0.46037734 0.17118409 9470591 -0.14892432 -0.017286509 0.98869747 0.0017706555
2.1268814 -0.46178418 0.17074902 8945019 -0.13246304 0.0052746264 0.99117392 0.0020185399
2.119221 -0.44400269 0.17102987 9404800 -0.14501227 -0.025937362 0.98908985 0.0019328137
2.1201859 -0.42762798 0.17087564 9404541 -0.14535694 -0.037757568 0.98865861 0.0014131359
2.0952268 -0.40670359 0.17290229 9339777 -0.12677911 -0.050196581 0.99066007 0.0016089715
2.1221156 -0.39487863 0.17056718 9208191 -0.14094144 -0.032159541 0.98949552 0.00091046002
2.1101069 -0.37642682 0.17150524 9076862 -0.12213996 -0.066998139 0.99024904 0.0018721888
2.0990398 -0.34199589 0.17229283 8945276 -0.11437297 -0.036293916 0.99277467 0.0024095518
2.049958 -0.30304497 0.17628792 8814203 -0.12792122 -0.012174535 0.99170965 0.0041283742
2.2156396 -0.30691963 0.1791873 7498082 -0.10561641 -0.029437134 0.99397117 0.0016010256
2.0508883 -0.28725594 0.17613921 8946043 -0.15182024 0.018527132 0.98823452 0.0039209495
2.1038058 -0.2611112 0.17153099 9274501 -0.15510847 0.015657503 0.98777336 0.0036374871
2.0917387 -0.24364813 0.17247844 9406087 -0.1586847 0.024436861 0.98702693 0.0036272048
2.1208954 -0.24590859 0.17126279 8814204 -0.11793225 -0.00906293 0.99298024 0.0014254928
2.0796599 -0.22638282 0.1734277 9011329 -0.16254228 0.038051691 0.98596758 0.0033365476
2.1215062 -0.22951616 0.17125732 8813693 -0.11793646 -0.0090638567 0.99297982 0.0014245094
2.0806015 -0.21040362 0.1732772 9011072 -0.15481514 0.03235554 0.98741353 0.003259412
2.0961435 -0.21094143 0.1723389 8682107 -0.12414344 -0.0045970301 0.9922536 0.0017466029
2.0815432 -0.19442445 0.1731267 9011069 -0.14475895 0.0012746586 0.98946619 0.003218248
2.0967469 -0.19474694 0.17233351 8682107 -0.12414347 -0.0045970394 0.9922536 0.0017465802
2.0824847 -0.17844525 0.1729762 8879483 -0.14702082 -0.0015582907 0.98913217 0.0031060078
2.0973504 -0.17855246 0.17232811 8747900 -0.12813403 0.047497202 0.99061882 0.0010634093
2.0834262 -0.16246605 0.17282569 8945530 -0.14693019 -0.0015787941 0.98914558 0.0031286946
2.0974231 -0.14717974 0.17156982 9142398 -0.13767034 0.013914187 0.99038035 0.0029606714
0.72651744 -0.10180533 0.17461544 15329775 -0.70808715 -0.64263952 0.29262087 0.023773201
0.73475039 -0.10823764 0.17350636 13222342 -0.75229359 -0.61129153 0.24571747 0.01472153
0.71544075 -0.093006454 0.17518198 9410215 -0.8051129 -0.5560137 0.20649919 0.024437957
0.70750988 -0.080251873 0.17427497 5327950 -0.85904008 -0.46920389 0.20468955 0.033987463
0.71151119 -0.084181346 0.17577851 5986140 -0.82771569 -0.53302675 0.17541136 0.026182642
0.70552778 -0.072047144 0.17374006 5722186 -0.90832245 -0.39995128 0.12243073 0.022554033
0.69862944 -0.064439394 0.17790237 4734525 -0.67954946 -0.65561604 0.32921138 0.083702892
0.70211977 -0.064499207 0.17535722 4865336 -0.89414072 -0.41690931 0.16339815 0.026680237
0.59189117 -0.052457672 0.17411619 6117209 -0.90501577 0.19653164 -0.37725556 0.055864461
0.60230225 -0.051555723 0.17942066 4076857 -0.98273814 -0.066325381 -0.17270397 0.054293334
0.69600385 -0.051069487 0.17190999 3487278 -0.87201816 -0.22230157 -0.43608066 0.067803949
0.70026875 -0.058750153 0.17471598 5326404 -0.89491397 -0.42468879 0.136998 0.059646662
0.59347141 -0.042825259 0.17508551 3550763 -0.72989661 0.57412022 -0.37099451 0.058485799
0.60385066 -0.041533701 0.17953269 4143669 -0.076267593 -0.99635464 0.0382195 0.039288856
0.68991578 -0.047190428 0.17728905 3485490 -0.74351734 -0.22425067 -0.62999493 0.069683753
0.60184431 -0.035122003 0.17816822 2827292 -0.84722328 0.30438185 -0.43538985 0.054884151
0.68930519 -0.036933191 0.17940947 2300457 -0.78015804 0.2734772 -0.56264001 0.073220722
0.69537818 -0.036931619 0.17213935 2367001 -0.89854312 0.19813018 -0.39161816 0.085921779
0.69700396 -0.027301889 0.17697991 3155747 -0.85430419 0.51597434 0.062727496 0.063086323
0.69885218 -0.018429536 0.17805582 3550502 -0.84300303 0.44125918 0.30763012 0.063700452
0.70218134 -0.013016066 0.17709109 3550758 -0.90074289 0.37540659 0.21847692 0.05558091
0.70618474 -0.0044669006 0.17434201 3090208 -0.89509141 0.37827545 0.23604876 0.033458117
0.70763493 0.0013001787 0.17754027 3024159 -0.87328541 0.43522578 0.21897736 0.063469738
0.71254665 0.005776193 0.173126 2958110 -0.84673727 0.49136323 0.20395634 0.031380944
0.71627003 0.01587208 0.17684196 2629402 -0.80742991 0.569157 0.15529692 0.018334029
0.72057134 0.019193036 0.17283547 2760986 -0.79173106 0.59179938 0.15144448 0.023009002
0.72530693 0.026077896 0.17476271 3219741 -0.71484101 0.68380773 0.14631923 0.017707158
0.7363252 0.031973749 0.17451935 3943202 -0.63133919 0.73851871 0.23664516 0.027671384
0.74250287 0.038354944 0.17400296 3548192 -0.60124153 0.75069094 0.27380982 0.025543325
2.0600746 0.090891257 0.17368948 8287085 -0.12210696 0.018659156 0.99234158 0.00090967421
2.0609992 0.10658145 0.17354169 8287600 -0.12213795 0.018664839 0.9923377 0.00090457289
2.0951509 0.1120597 0.1727751 8089455 -0.10213581 -0.014165958 0.99466968 0.0013930668
2.0619235 0.12227161 0.17339391 8090221 -0.12981068 0.01756639 0.99138319 0.00083657244
2.0760086 0.13904865 0.17212403 8024428 -0.16129978 -0.025758754 0.98656929 0.0035667235
2.1218793 0.13013004 0.1716813 7892076 -0.11556652 -0.011078671 0.99323797 0.0015493396
2.0769389 0.15483765 0.17197531 7958635 -0.17193085 -0.012121507 0.98503447 0.0031396321
2.0646973 0.16934219 0.17295057 7892331 -0.18429431 0.013351073 0.98278046 0.0034103538
2.0656219 0.18503237 0.17280281 8023145 -0.18262307 0.0047043087 0.98317176 0.0035393843
2.0543771 0.19935425 0.17369428 7760743 -0.14281559 0.0035594178 0.98974299 0.0012500874
2.0981495 0.19253719 0.17274828 7759973 -0.10209914 -0.014148949 0.99467367 0.0013972457
2.0474253 0.20281748 0.17487855 7497573 -0.1268523 -0.00062035932 0.99192148 0.0019457139
2.067471 0.21641275 0.17250723 7365987 -0.17598848 0.015976006 0.98426259 0.0037187205
2.0610969 0.22010598 0.17432891 6511189 -0.12685734 -0.00062266854 0.99192083 0.0019438701
2.1765852 0.2290017 0.1796062 5656140 -0.11587381 0.027343655 0.9928875 0.005278389
2.0650406 0.23400757 0.17334154 7891818 -0.14449178 0.0024414468 0.98950297 0.0032214273
2.0825212 0.24957199 0.17108306 7892329 -0.14211392 0.001125019 0.98984969 0.0052398085
2.0580537 0.26174992 0.17310661 7563111 -0.10306034 -0.045362905 0.99364018 0.0013868515
2.0711691 0.27917343 0.17191613 7628906 -0.103458 -0.046699014 0.99353695 0.0011721423
2.0720937 0.29486364 0.17176834 7432037 -0.081587389 -0.037448019 0.99596244 0.00088246685
2.0363972 0.30453241 0.17475632 7497573 -0.10595744 -0.021108691 0.99414659 0.0021651164
2.0373056 0.31994879 0.17461109 7694182 -0.11443062 -0.016225647 0.99329877 0.0024709282
2.038214 0.33536518 0.17446589 7759716 -0.12309833 -0.010902343 0.9923346 0.0022718329
2.0391226 0.35078156 0.1743207 7562594 -0.14212652 -0.023623353 0.98956656 0.002379427
2.0278025 0.36382568 0.17522421 7365985 -0.17435047 0.015859164 0.98455602 0.0013907851
2.0409393 0.38161439 0.1740303 7366498 -0.16584125 0.010479766 0.9860968 0.0013246369
2.0418477 0.39703071 0.17388511 7432037 -0.16314347 0.015756797 0.9864766 0.0015302701
2.0305116 0.40980107 0.17479119 7432291 -0.17260404 0.0055362466 0.98497576 0.001631038
2.0314145 0.42512614 0.17464685 7431778 -0.16560467 0.0011270149 0.98619157 0.0016519233
2.0445731 0.44327986 0.17344949 7431008 -0.14747897 0.00019310997 0.98906517 0.001378127
2.0454814 0.45869625 0.17330429 7430749 -0.13851692 0.0036809188 0.99035329 0.00098707236
2.0586557 0.47712368 0.17210439 7299676 -0.10662319 0.0039720298 0.99429154 0.0011207147
2.0350268 0.48642665 0.17406949 7365469 -0.11917245 -0.015942344 0.99274558 0.0010410754
2.0359297 0.50175178 0.17392516 7102813 -0.11789349 -0.024853956 0.99271518 0.00092178438
2.0245504 0.51379204 0.17483813 7037020 -0.11412896 -0.026087355 0.99312341 0.00083653856
2.0377359 0.53240204 0.17363647 7037022 -0.12071423 -0.030134272 0.99222982 0.00062835065
2.0386391 0.54772711 0.17349213 7102045 -0.12128779 -0.023846714 0.99233091 0.00080910086
2.0272436 0.55949354 0.17440769 6905434 -0.12156156 -0.015248431 0.99246681 0.0012138253
2.0168629 0.57138175 0.17523649 6971227 -0.13209055 0.012369922 0.99116051 0.001497135
2.0290389 0.58996129 0.17412072 6904664 -0.13682683 0.013225196 0.99050677 0.001007498
2.0299366 0.60519516 0.17397723 6839125 -0.13739763 0.015675459 0.99039191 0.0010754148
2.007221 0.6129086 0.1758717 6773846 -0.1142363 0.011798678 0.99338359 0.0017602962
2.0317318 0.63566279 0.17369026 6708055 -0.12891805 1.869863e-06 0.99165529 0.0018218028
2.1473579 0.64058661 0.17986864 6838612 -0.10861971 0.0026291681 0.99407989 0.0031959363
2.0326295 0.65089667 0.17354679 6707285 -0.12792525 -0.004632201 0.99177301 0.0019976005
2.0335271 0.66613054 0.17340329 6576469 -0.12801304 -0.022571648 0.99151564 0.0019228207
2.0467663 0.68565321 0.17219305 6641494 -0.11500554 -0.023876574 0.99307787 0.0019236183
2.0353224 0.69659829 0.17311636 6641492 -0.13638274 -0.043385863 0.98970568 0.0014507525
2.0125451 0.70326221 0.17502069 6575699 -0.11488971 -0.03868854 0.99262458 0.0020671675
2.0021048 0.71413869 0.17585906 6509906 -0.090277731 -0.04863539 0.99472839 0.0020366861
2.0143199 0.73338002 0.17473704 6247506 -0.11508374 -0.051723402 0.99200833 0.0015794907
2.0038695 0.74408925 0.17557698 6115920 -0.13937232 -0.12828173 0.98189574 0.013488985
2.0196989 0.7496469 0.17670448 6115667 -0.23659916 -0.34258071 0.90920806 0.11111314
2.0160947 0.76349789 0.17445338 6247506 -0.15360089 -0.21038815 0.96547592 0.043070532
2.0056345 0.77403969 0.17529491 6642264 -0.23525208 -0.22855347 0.94467974 0.047038753
2.0446746 0.77448612 0.17569207 6247255 0.07446941 -0.88235056 0.46466318 0.18147011
1.9951643 0.78441429 0.17613798 6246736 -0.20841046 -0.30693382 0.92863166 0.067244723
2.0330477 0.78517056 0.17619057 6313299 0.053347919 -0.82000232 0.56986868 0.16815656
1.9846846 0.79462159 0.17698267 6049609 -0.0268088 -0.4457567 0.89475268 0.1339986
2.0214136 0.79567212 0.17668913 6181195 -0.23779076 -0.6785543 0.69499618 0.16502623
1.702515 0.80430233 0.1730901 1576974 -0.48455805 -0.77745217 -0.40096337 0.088957705
1.985177 0.80929369 0.17810327 5785925 -0.03171131 -0.94577044 0.32328433 0.094724745
2.0097728 0.80599082 0.17718773 6049094 -0.10064659 -0.6733914 0.73240316 0.15858451
1.7035623 0.8176173 0.17426968 2102807 -0.36218917 -0.90330696 -0.22990336 0.1139808
1.720116 0.81606627 0.17624491 2562067 -0.50182033 -0.8468892 -0.17594083 0.123976
1.7369598 0.81128991 0.17540649 2628121 -0.10326342 -0.97945595 -0.17321286 0.042960305
1.6947393 0.82606286 0.17313337 1576722 -0.83930618 -0.23272282 -0.49133006 0.081694469
1.7114227 0.82460278 0.17668676 2562067 -0.84922993 -0.48572084 -0.20708406 0.10275937
1.9645579 0.82917476 0.17853889 5260093 -0.32570553 -0.92442995 0.19835633 0.12437956
1.9849571 0.82424188 0.1795157 5259328 -0.019681102 -0.97536951 -0.21969765 0.053675018
1.9977969 0.82908916 0.1757172 5588543 -0.02537908 -0.70018864 0.71350664 0.16135474
2.0103409 0.82124114 0.17718264 5720129 -0.18705411 -0.97082728 0.15001723 0.1278082
1.6948761 0.8389377 0.17326343 1051148 -0.85782099 -0.073251955 -0.50870156 0.063677065
1.704483 0.83211631 0.17613889 1838864 -0.76289999 -0.60909408 -0.21676701 0.080826104
1.9437838 0.83690751 0.17998055 4404784 0.081505798 -0.98566651 -0.14771006 0.069200985
1.9520917 0.83946389 0.17894113 4799027 -0.016638661 -0.95606112 -0.29269496 0.048631802
1.9656426 0.83187836 0.17906182 4996667 -0.014002943 -0.99860638 -0.050884161 0.12233351
2.0109091 0.83649158 0.17717756 5259578 -0.24116048 -0.97012991 0.026260758 0.10850929
1.7050989 0.84494239 0.17607681 1576459 -0.9090746 0.36543709 -0.20009783 0.078729913
1.9654206 0.84381539 0.17840099 4865335 -0.075536467 -0.99357617 0.084265903 0.12042655
1.9971838 0.84466946 0.17998692 5127743 -0.01816521 -0.978993 -0.20308316 0.052818712
1.6950127 0.85181248 0.17339349 853767 -0.91853452 -0.0903062 -0.38488856 0.054252941
1.7047077 0.85936856 0.17707047 1576199 -0.94114321 0.082670271 -0.32774258 0.027356718
1.6951493 0.86468732 0.17352356 722181 -0.93254167 -0.18944362 -0.30737129 0.058843255
1.695286 0.87756211 0.17365362 920073 -0.96790498 -0.19222802 -0.16189007 0.050439533
1.7051895 0.87229669 0.17706615 1313801 -0.92460799 0.088735729 -0.37044045 0.022477971
1.6863627 0.88546944 0.17353486 788487 -0.99454367 -0.041473534 -0.095723048 0.02460425
1.7056712 0.88522488 0.17706183 1313801 -0.91003817 0.076270305 -0.40744761 0.02524187
1.6864988 0.89827567 0.17366421 591878 -0.99606091 0.0029070023 -0.08862444 0.027276356
1.7061529 0.89815301 0.17705753 1313801 -0.84530365 0.23645057 -0.47911683 0.040817305
1.695696 0.91618663 0.1740438 723464 -0.99571705 0.067463495 -0.063216865 0.026194392
1.6958326 0.92906129 0.17417386 787976 -0.99424642 0.092158206 -0.054597858 0.023059737
2.4211059 -1.3256646 0.18711504 7958373 -0.20976755 0.13637917 0.96819335 0.041203801
2.3891249 -1.2509134 0.18895468 8352110 -0.11256927 -0.020866876 0.99342477 0.0018750669
2.2211933 -1.2401296 0.18329117 8550770 -0.10535772 0.028232113 0.99403358 0.0026287413
2.2222226 -1.2226597 0.1831266 8550772 -0.10853922 0.018645735 0.99391729 0.003169032
2.3957396 -1.1386559 0.18789735 8616304 -0.1068949 0.026123544 0.99392712 0.0042420998
2.243118 -1.1249149 0.18103459 9339775 -0.11056376 -0.0021347748 0.9938668 0.0019243631
2.3801017 -1.1124454 0.18885168 8616304 -0.10759398 0.0016540117 0.99419355 0.0044815307
2.2441542 -1.107331 0.18086898 9405566 -0.11318471 -0.0012513786 0.99357319 0.0016047363
1.687821 -1.0833457 0.18368857 7235951 -0.49762017 0.84412646 0.19956112 0.085438646
2.3644488 -1.0864934 0.1898084 8616050 -0.1107218 -0.015130427 0.99373633 0.0045219134
1.6973392 -1.0751696 0.182708 6973547 -0.77742952 0.62443501 0.075393982 0.062021472
1.6981356 -1.0616547 0.18258068 6973547 -0.82344705 0.56390405 0.062826142 0.066136919
2.365536 -1.0680424 0.18963465 8616050 -0.1092876 -0.010391669 0.99395591 0.0050563007
1.707666 -1.0532734 0.18159813 7038313 -0.88056976 0.46556696 0.088568509 0.062035758
2.3833861 -1.0567045 0.18832669 8616563 -0.12076798 -0.026514187 0.99232662 0.0046044635
2.2325168 -1.0479611 0.18148121 9602177 -0.10010263 0.0013234526 0.99497628 0.0015074642
1.6877561 -1.0320399 0.18838546 8748929 -0.32865277 0.94126898 -0.07746087 0.038922898
1.7084665 -1.0396899 0.18147019 7301483 -0.9298442 0.35071287 0.11131178 0.044042088
2.2482989 -1.0369952 0.18020654 9602177 -0.11586463 0.0037676853 0.99325788 0.0013059844
1.7075896 -1.0274835 0.18448678 8025203 -0.75204158 0.65301031 0.089503936 0.045275733
1.7152464 -1.0204033 0.18725197 8091510 -0.532875 0.84480685 -0.04843251 0.04467845
1.7188137 -1.0174514 0.18035713 7498344 -0.91496426 0.36829507 0.16492182 0.073222205
2.2208769 -0.97150892 0.18201068 9667970 -0.083648041 0.011208463 0.9964323 0.0016052357
2.3709722 -0.97578746 0.18876573 8944499 -0.15127283 -0.019134052 0.98830688 0.0024043713
2.3888605 -0.96380317 0.18745169 9076087 -0.16766958 -0.010948993 0.9857825 0.00376677
2.3731465 -0.93888551 0.18841818 9076087 -0.14351001 -0.0045360485 0.98963851 0.0024961771
2.374234 -0.92043447 0.18824437 9011323 -0.13772498 -0.0042711315 0.99046135 0.002433361
2.2152441 -0.81024021 0.18166316 9602947 -0.093433142 -0.031763416 0.9951188 0.0043160967
2.2310996 -0.79802704 0.18037674 9537154 -0.1080042 -0.047588564 0.99301076 0.0029326731
2.2321217 -0.78067887 0.18021333 9471363 -0.10389627 -0.031172168 0.99409956 0.0028446815
2.3354223 -0.72146833 0.18990332 8681845 -0.12366821 -0.010880833 0.99226403 0.00068016473
2.2165382 -0.54853302 0.18029153 8747638 -0.11448246 -0.004901899 0.99341321 0.0010085271
2.2323828 -0.3434422 0.18372947 8023145 -0.12409269 -0.019266156 0.99208361 0.00073731726
2.1705923 -0.3350563 0.18281034 8484466 -0.10481954 -0.049047586 0.99328107 0.0012675837
2.2040808 -0.32242966 0.18471611 8023145 -0.11957442 -0.020625979 0.99261099 0.00087794417
2.1757624 -0.30185881 0.18570289 7102295 -0.12257696 -0.028571166 0.99204767 0.00081114162
2.1614892 -0.26692492 0.18318379 8813431 -0.11463264 -0.0033575122 0.9934023 0.0035747958
2.1624665 -0.2503373 0.18302757 8747638 -0.11552855 -0.013061758 0.9932183 0.0024971657
2.1493926 -0.23247072 0.18395263 8681845 -0.11459713 -0.0084849503 0.99337584 0.0030764912
2.1932604 -0.23598769 0.18516695 8089708 -0.12827995 -0.02849626 0.99132854 0.00091609673
2.1503639 -0.21598956 0.18379739 8616565 -0.12577586 0.032073691 0.99154007 0.0028406973
2.1648967 -0.21662736 0.18615417 8286571 -0.12233189 -0.020491511 0.99227774 0.0012653389
2.1925223 -0.20263027 0.18046969 8616052 -0.12688361 -0.0015679162 0.99191642 0.0037257872
2.165519 -0.19992277 0.18614861 8220778 -0.12233386 -0.020497141 0.99227732 0.0012652565
2.193512 -0.18583727 0.18031153 8681845 -0.11674209 0.037863165 0.99244022 0.0026507392
2.2091577 -0.18617375 0.18467067 8286317 -0.12827016 -0.02848842 0.99132997 0.00091795868
2.2248023 -0.17005861 0.18415134 8220524 -0.12827016 -0.02848842 0.99132997 0.00091795868
2.1945014 -0.16904429 0.18015337 8616052 -0.11669724 0.037873287 0.99244511 0.0026612713
2.1542485 -0.15006492 0.18317649 8550772 -0.13251942 0.037988815 0.99045217 0.0025430119
2.1552196 -0.13358377 0.18302125 8485492 -0.13176976 0.04595032 0.99021482 0.002236719
0.7209928 -0.10110513 0.18120217 12630726 -0.80605829 -0.56907618 0.1625499 0.014583846
0.73194617 -0.10760981 0.1819658 11774136 -0.80598378 -0.56918329 0.16254428 0.014707495
0.71622682 -0.091357663 0.18183491 7038574 -0.79580027 -0.57205307 0.19863841 0.030704236
0.72492635 -0.092750899 0.18867847 5986170 -0.51852661 -0.7150721 0.46883062 0.06566444
0.71166217 -0.083513901 0.18331492 5262164 -0.83331728 -0.44538686 0.32743368 0.039818697
0.72240227 -0.08295045 0.18932199 7105655 -0.70941734 -0.52422184 0.4710823 0.076942362
0.70592308 -0.071213804 0.18486553 4604231 -0.89013082 -0.34793735 0.29429013 0.027689699
0.70547444 -0.066458859 0.18441717 4208699 -0.85887927 -0.32238275 0.39798954 0.049850006
0.71140075 -0.060032129 0.18582582 4999494 -0.67904496 -0.39815664 0.61674094 0.05550427
0.60814524 -0.051719405 0.18454218 4143413 -0.98273748 -0.066327818 -0.17270711 0.054291338
0.7036885 -0.058699504 0.1838529 4274486 -0.73714817 -0.40883234 0.53802294 0.061785586
0.60762024 -0.044538222 0.18348762 4273971 -0.18795455 0.97852284 -0.08465302 0.0692937
0.61496258 -0.045858681 0.18602836 4208690 -0.075205371 -0.99611235 0.045873396 0.034265347
0.67569828 -0.043162696 0.18875372 2826278 -0.82929564 0.039067551 -0.5574429 0.10614812
0.68424278 -0.048500564 0.18531978 3748400 -0.73323423 -0.18524104 -0.65425777 0.07894405
0.61185896 -0.039129216 0.18255468 4142641 -0.07627257 -0.99635428 0.038218834 0.039285935
0.67788953 -0.037787285 0.18854707 2432031 -0.83475608 0.28938413 -0.46844339 0.062265184
0.68587786 -0.036898315 0.18305588 3551532 -0.79327148 0.2026761 -0.5741452 0.067856878
0.69980448 -0.028507285 0.18274648 2497303 -0.80736738 0.58989793 -0.01335302 0.075566784
0.70479798 -0.024862614 0.18511143 3155490 -0.80365813 0.3740983 0.4628002 0.070415832
0.70591241 -0.015829053 0.18521811 2959139 -0.7903285 0.25373289 0.55767405 0.058358908
0.7053082 -0.005017906 0.18421371 3023902 -0.85184485 0.32190806 0.41320178 0.059115689
0.71030629 -0.0044134338 0.18484737 3023902 -0.72979486 0.30873296 0.60998636 0.041444927
0.72127014 -0.005253138 0.18976173 4011564 -0.58384168 0.27074569 0.76539254 0.022850676
0.7095592 0.0016001342 0.18508212 2695198 -0.70800191 0.40826795 0.57623821 0.054793537
0.71327394 0.0088379048 0.18338323 2760987 -0.75743163 0.47627923 0.44660437 0.051980089
0.72530508 0.0050670956 0.18892276 4340787 -0.58543944 0.31843054 0.7455619 0.025354367
0.71763355 0.015558836 0.18477923 2300182 -0.74395251 0.52315211 0.4157483 0.047451615
0.72643983 0.019403106 0.18954204 4340020 -0.68528134 0.47876394 0.54879373 0.040533733
0.73148292 0.018517833 0.18763047 4012082 -0.64198422 0.43431449 0.63184434 0.043245923
0.72485727 0.024393581 0.18420598 3286047 -0.68705058 0.60359555 0.40451685 0.046037871
0.73247463 0.028582383 0.1866819 2891033 -0.61884981 0.63063246 0.46832427 0.047236677
0.72892898 0.030083574 0.182235 4272166 -0.67354178 0.65572137 0.3411319 0.049199242
0.7359876 0.034364659 0.18516091 3811878 -0.58568406 0.71394062 0.38374859 0.056797531
0.74183398 0.038638823 0.18759088 3087901 -0.53859729 0.74394476 0.39554921 0.052280135
0.75253493 0.037806515 0.18928865 4011315 -0.33660623 0.69562566 0.6346662 0.067889668
0.74665284 0.04333283 0.18442971 4470050 -0.50961483 0.74456269 0.43118334 0.048158981
2.1283107 0.094722182 0.18399468 8089192 -0.11300345 -0.030488748 0.99312675 0.0033860588
2.1636546 0.099970959 0.18649407 7496803 -0.11806683 -0.017783169 0.99284643 0.0012273579
2.1292639 0.11089914 0.1838423 7958122 -0.12937273 -0.024494221 0.99129355 0.0041180071
2.2065039 0.1194457 0.18504846 7496803 -0.1180668 -0.017779527 0.99284649 0.001227431
2.1565688 0.12905124 0.18164092 7958120 -0.10854603 -0.014890549 0.99397993 0.0046385233
2.221215 0.13743405 0.18456279 7431010 -0.1207948 -0.016775819 0.99253571 0.0012670051
2.144352 0.14433947 0.1825121 7892327 -0.11806611 -0.0021023189 0.99300355 0.0049807844
2.1321235 0.15942994 0.18338522 7826534 -0.13725099 0.0089494279 0.99049592 0.0056712339
2.2218497 0.15446608 0.18455711 7365217 -0.12079476 -0.01677572 0.99253577 0.0012669801
2.1330767 0.17560688 0.18323284 7826536 -0.13672867 0.015751662 0.99048328 0.0058093905
2.1208305 0.19040076 0.18410873 7891813 -0.14015011 0.019623971 0.98993582 0.0061502066
2.139174 0.19662601 0.18742122 7037020 -0.12034307 -0.018871505 0.99255306 0.001287714
2.1481884 0.2094427 0.18189892 7497571 -0.14250955 0.035421994 0.98915941 0.0053642467
2.1501064 0.24199432 0.18159235 7629670 -0.12717864 0.049075089 0.99066502 0.0049145529
2.1510653 0.25827011 0.18143904 7629155 -0.12736167 0.038144957 0.9911226 0.0049757697
2.1520245 0.27454591 0.18128577 7563362 -0.12548535 0.017743452 0.9919368 0.0057600481
2.1662178 0.29279804 0.18009865 7497830 -0.13614333 -0.021777024 0.99044979 0.0022844051
2.115164 0.3168512 0.18393296 7497573 -0.088495508 -0.043526206 0.99512511 0.0018990146
2.1293571 0.33510333 0.18274584 7562596 -0.097088337 -0.038838901 0.99451768 0.0016057593
2.1435623 0.35355318 0.18155685 7628387 -0.10511465 -0.03870621 0.99370664 0.0024032127
2.1312521 0.36725944 0.18244299 7628387 -0.11242345 -0.041149162 0.99280798 0.0021261962
2.1587379 0.38847655 0.18021268 7431778 -0.10892884 -0.0049087689 0.99403745 0.002784461
2.1198719 0.39674723 0.18318045 7365985 -0.11720166 -0.0017169244 0.99310672 0.0021468275
2.0952735 0.40740472 0.1850324 7431780 -0.081678867 0.0035857095 0.99665225 0.0011683344
2.1217549 0.42870563 0.18287945 7300451 -0.12174332 -0.0075349221 0.99253309 0.0022002391
2.135989 0.44764984 0.18168581 7365987 -0.13499109 -0.011121274 0.99078435 0.0025345348
2.1369364 0.46372789 0.18153438 7365217 -0.13566901 -0.021402249 0.99052304 0.0037954524
2.1245797 0.47664315 0.18242794 7431010 -0.14769098 -0.0049614888 0.98902118 0.0026759023
2.1122117 0.48936069 0.18332335 7234399 -0.13975336 -0.011899246 0.99011487 0.0024138298
2.1264629 0.50860155 0.18212694 7102811 -0.14931744 -0.037749138 0.98806846 0.0025875415
2.1274045 0.52458078 0.18197644 6971227 -0.14283554 -0.04895664 0.98853493 0.0019241354
2.1150188 0.53700167 0.18287465 7102813 -0.13800927 -0.044781025 0.98941809 0.0017600068
2.1159546 0.55288202 0.18272507 6971229 -0.13247675 -0.0043053441 0.99117684 0.0028721625
2.1045773 0.56529534 0.18354529 6905436 -0.1251836 0.0044894898 0.99212348 0.0024500981
2.1073685 0.61266255 0.18309915 6773078 -0.13651788 -0.00052819727 0.99063754 0.0022230523
2.1092293 0.64424062 0.18280172 6510160 -0.13703501 -0.023264464 0.99029297 0.0023169753
2.0967858 0.65568048 0.1837092 6313297 -0.13431756 -0.02881882 0.99051923 0.002401588
2.1110899 0.67581868 0.1825043 6181970 -0.13157555 -0.035211343 0.99068063 0.0026041106
2.098635 0.68706077 0.18341365 6050385 -0.13141917 -0.043322239 0.99037981 0.0026113025
2.087198 0.69846255 0.18424338 5984592 -0.12345622 -0.050522611 0.99106312 0.0028263167
2.0881171 0.71406144 0.18409646 5984592 -0.13116544 -0.03101855 0.99087507 0.0020840245
2.1014085 0.7341314 0.18297032 6050127 -0.14519207 -0.022329668 0.98915154 0.0018009171
2.1023331 0.74982154 0.18282253 5918541 -0.10124724 -0.090909585 0.99069899 0.012239691
2.1605511 0.77036124 0.18722995 5852748 0.016840018 -0.96914363 0.24592072 0.05822536
2.0927129 0.79205602 0.18336186 6246736 -0.0026057959 -0.14825742 0.98894542 0.042933226
2.1896408 0.79740703 0.18626153 6379092 0.016771024 -0.96913779 0.24594884 0.058237724
1.7368821 0.80792427 0.18707061 3021591 -0.065524451 -0.95677626 -0.28334752 0.038667955
1.8189504 0.80672204 0.18949294 1575180 -0.011589454 -0.99881899 0.047184613 0.0059571164
1.8205149 0.80974865 0.18509381 3022367 -0.10735024 -0.97394615 0.1997623 0.12453371
2.0198224 0.80885917 0.18013281 6114640 -0.072920211 -0.98511249 -0.15567988 0.041207962
2.0936322 0.80765498 0.18321493 6180943 -0.26299614 -0.0059089512 -0.96477878 0.094912179
1.7050986 0.81752712 0.18695617 3745052 -0.66304445 -0.73398304 -0.14710867 0.11289872
1.7199152 0.81264383 0.18661356 3547933 -0.32741675 -0.8914513 -0.31322968 0.10449078
1.7215401 0.81601757 0.18923365 4269337 -0.43143862 -0.90060753 -0.052601784 0.10282162
1.7323842 0.81777412 0.18543598 3876897 -0.33203402 -0.94319081 0.012023836 0.067994133
1.7475801 0.81562465 0.188146 3875870 -0.025287166 -0.9929539 -0.11577208 0.018805372
1.7737938 0.8137219 0.18759918 2955287 -0.021342874 -0.99693644 -0.075247981 0.020754287
1.7962303 0.81092548 0.18762112 2363923 -0.015184851 -0.99984699 -0.008682034 0.014277063
1.6950314 0.82592976 0.18600556 1444615 -0.91887808 -0.39122146 0.051077597 0.093118392
1.7046726 0.82053578 0.18994337 3809562 -0.80425334 -0.56951803 -0.16978174 0.094435446
1.8719099 0.82972032 0.18640238 3942950 0.17750205 -0.9677065 0.17898934 0.12905578
1.8903197 0.82744569 0.18220109 3746089 0.10602786 -0.99174112 -0.072164983 0.046508629
1.9021301 0.82969564 0.18383674 4207151 -0.063433684 -0.99669743 0.050699726 0.11197225
2.0706511 0.82863307 0.18489158 5523779 -0.018672327 -0.8340627 0.55135363 0.17570634
2.0959849 0.82443333 0.18625337 5720648 -0.31162676 -0.71823478 -0.62211543 0.079674825
1.6951681 0.8388046 0.18613562 1445128 -0.95584166 -0.21504262 -0.20030861 0.066779174
1.7065778 0.83206892 0.18878883 2035470 -0.73175126 -0.6494959 -0.20662808 0.079495773
2.0238209 0.83873731 0.18846682 4733238 0.11022671 -0.98865235 -0.10206226 0.082659736
2.0467288 0.83364713 0.18671864 5391679 0.090297207 -0.95353448 0.28743413 0.10475419
1.7071935 0.84489501 0.18872675 1641738 -0.81623274 -0.50900251 -0.27327737 0.04085511
1.6953048 0.85167938 0.18626568 1641224 -0.98573059 -0.021497099 -0.16695212 0.042622909
1.7061176 0.85932034 0.18993047 1772551 -0.93213481 0.0059066946 -0.36206332 0.015841883
1.6954414 0.86455423 0.18639575 1378820 -0.99880111 -0.030354649 -0.038406242 0.016446868
1.6955781 0.87742901 0.18652581 1509640 -0.99346375 -0.10307004 -0.04905517 0.026712369
1.7065994 0.87224847 0.18992615 1444613 -0.9136799 0.040187381 -0.40444276 0.01986549
1.6957147 0.89030385 0.18665586 1575174 -0.99246478 -0.07313896 -0.098307811 0.030982802
1.7075628 0.89810479 0.18991753 1509640 -0.95134914 0.094364136 -0.29330927 0.054902419
1.6958514 0.90317869 0.18678594 1509638 -0.99597424 0.081066757 -0.038256183 0.023404492
1.6959881 0.91605353 0.18691599 1378822 -0.99121469 0.12516111 -0.042757437 0.018870989
1.6961247 0.9289282 0.18704605 1181702 -0.98280889 0.17629297 -0.054841049 0.01508962
2.3535764 -1.2710034 0.19154623 8286569 -0.1139299 -0.034861535 0.99287695 0.0015190188
2.3546636 -1.2525523 0.19137242 8220778 -0.12697645 -0.032663535 0.99136782 0.0016243082
2.5449769 -1.2447615 0.19203691 7825507 -0.99505794 0.061140392 -0.078240082 0.047845107
2.3568382 -1.2156503 0.19102487 8220524 -0.1157852 0.024393825 0.9929747 0.0038607283
2.3579254 -1.1971993 0.19085112 8418157 -0.11707135 0.021019647 0.99290109 0.00420943
2.3255932 -1.162712 0.19292864 8549741 -0.078891352 0.00056405971 0.99688309 0.004374004
2.3266652 -1.1445196 0.19275734 8484718 -0.080203354 0.0059539564 0.99676079 0.0043632286
2.3444622 -1.1340868 0.19145787 8616304 -0.091895245 0.0074057593 0.99574119 0.0042602741
2.4541163 -1.124053 0.19453226 8022886 -0.46807516 0.017600387 0.88351333 0.051721931
1.6820211 -1.0780554 0.19762123 9143946 -0.77456772 0.62495738 -0.097330108 0.05247001
1.6915505 -1.0699483 0.19670817 9143689 -0.75323969 0.63881296 -0.15667799 0.051642682
1.6923429 -1.0565017 0.19658154 8946559 -0.79712623 0.57072163 -0.19714612 0.051588129
1.7018842 -1.048189 0.19566655 8946306 -0.89325809 0.42863747 -0.13549912 0.025831481
1.7114338 -1.0397397 0.19475029 8749440 -0.89154094 0.44899464 -0.059653942 0.032371599
