# .PCD v0.7 - Point Cloud Data file format
VERSION 0.7
FIELDS x y z rgb normal_x normal_y normal_z curvature
SIZE 4 4 4 4 4 4 4 4
TYPE F F F U F F F F
COUNT 1 1 1 1 1 1 1 1
WIDTH 516
HEIGHT 1
VIEWPOINT 0 0 0 1 0 0 0
POINTS 516
DATA ascii
0.84881508 -0.53677642 0.011343911 11970478 -0.052303538 -0.034991842 0.99801797 0.00065333006
0.85227722 -0.53589964 0.0107833 12495538 -0.075627521 -0.006338106 0.99711603 0.0010447168
0.87252855 -0.53094941 0.012298889 12561587 -0.075866453 -0.026164744 0.99677467 0.0015918534
0.88926077 -0.5310955 0.013082147 13153211 -0.088683605 -0.00087186694 0.99605948 0.0016139176
0.89565253 -0.53540754 0.01544714 12365233 -0.12493677 -0.011353733 0.99209976 0.0018042049
0.90494901 -0.53429043 0.015468806 13153212 -0.10742087 0.0064090756 0.99419302 0.00097612612
0.92285466 -0.53605711 0.017100759 12956601 -0.07846152 0.010001297 0.996867 0.0016363009
0.93058735 -0.53383875 0.018702835 12955579 -0.095767349 -0.001268262 0.99540293 0.0010359366
0.94522011 -0.53635317 0.017989963 13481923 -0.097166657 0.014975738 0.99515545 0.0010005707
0.95321453 -0.5370636 0.018581986 12759992 -0.08132346 -0.018477099 0.99651647 0.0021541291
0.82470149 -0.52304155 0.010504693 11772838 -0.10968669 0.010894321 0.9939065 0.0013827612
0.85333538 -0.52686274 0.010618523 12561586 -0.080369465 -0.012285726 0.99668944 0.0014864877
0.87779427 -0.52197975 0.012369543 12233387 -0.064197466 -0.016766401 0.99779642 0.001916246
0.89392346 -0.52152097 0.011701018 13219005 -0.088861495 -0.0029846206 0.99603957 0.0015263953
0.90591103 -0.52442592 0.015770257 12758710 -0.11813188 -0.011690436 0.99292904 0.0015899573
0.92498571 -0.52441472 0.018157521 13021883 -0.081721164 -0.0080227749 0.99662298 0.0016406938
0.94929373 -0.52997112 0.016803533 13482177 -0.10125009 0.014665176 0.99475294 0.00098277826
0.95440924 -0.52510083 0.018697202 12629174 -0.077622198 -0.03652766 0.99631351 0.0017742752
0.82725531 -0.51709962 0.010065764 11838377 -0.11422008 0.011157849 0.99339283 0.0015168958
0.84911442 -0.51413023 0.012043059 12036521 -0.070134819 -0.0036828723 0.99753076 0.0019331141
0.8544876 -0.51097453 0.010901958 12955320 -0.1146704 -0.00060123019 0.99340343 0.0017807994
0.87409252 -0.51496226 0.01220573 12758709 -0.068173185 -0.011178817 0.99761093 0.0015544296
0.89262056 -0.51411271 0.015133749 12890295 -0.10682772 -0.004316973 0.99426818 0.0017583231
0.90529734 -0.51267588 0.013975441 12366000 -0.13813452 0.00057724304 0.99041331 0.0014615449
0.91208082 -0.51366824 0.015432686 13086649 -0.10598511 -0.022056401 0.9941231 0.0015045052
0.92613453 -0.51137799 0.017113596 13351102 -0.064716041 0.00098411739 0.99790323 0.0013713223
0.94800258 -0.51678681 0.017754585 13482177 -0.088746399 7.1998686e-05 0.99605429 0.0016396622
0.95881927 -0.51054251 0.018206447 12629175 -0.079375669 -0.039601721 0.99605787 0.0018470682
0.84983218 -0.5069434 0.01211229 12101800 -0.053315803 0.0081786551 0.99854422 0.0012365027
0.85208803 -0.50207192 0.012200683 12955318 -0.11687288 0.0050008637 0.99313426 0.0016702889
0.86572474 -0.50216359 0.017294198 12692659 -0.094103493 0.0077120499 0.99553257 0.0029577098
0.87101942 -0.50300455 0.012894839 13021111 -0.069544226 -0.016618503 0.99744046 0.0015766993
0.88207138 -0.50865936 0.011798933 12233646 -0.065515734 0.010541462 0.99779588 0.0011312049
0.89341575 -0.50492167 0.014092132 13152698 -0.095805317 -0.013404705 0.99530983 0.0020708416
0.90620041 -0.50384998 0.014914811 12759735 -0.12536779 0.0089119989 0.99207032 0.0018970669
0.91508758 -0.50475067 0.018301263 12759222 -0.11192594 -0.0090091685 0.99367571 0.0016333365
0.92372841 -0.5020538 0.018333703 13350848 -0.086708315 -0.019615563 0.99604064 0.0021605238
0.93007302 -0.50338411 0.019727498 13087166 -0.063276418 -0.014347686 0.99789292 0.0019185892
0.95041442 -0.50536251 0.017341316 13481923 -0.10037506 -0.019723281 0.9947542 0.001930758
0.85580599 -0.49570894 0.012090791 12561073 -0.078991406 0.012843589 0.9967925 0.001927087
0.87451923 -0.49445239 0.013253838 12823734 -0.096060008 0.0069188052 0.99535149 0.0021605249
0.88038325 -0.49605656 0.012619227 12168107 -0.051807772 -0.0099344216 0.9986077 0.001039885
0.89086342 -0.49636567 0.016753942 12889273 -0.095682926 -0.0089225052 0.99537188 0.0028534646
0.90666193 -0.49491498 0.016544929 12692917 -0.11684919 -0.014199704 0.99304819 0.0023432414
0.91890717 -0.49518368 0.019320846 12628404 -0.1300227 0.0070920177 0.99148566 0.002077935
0.92840511 -0.49554634 0.018724069 13218750 -0.068951316 -0.020257438 0.99741429 0.002158389
0.95211226 -0.49626827 0.01867266 13088187 -0.09750621 -0.030448701 0.99476904 0.0020382097
0.96307319 -0.49527457 0.017993718 13153212 -0.11037187 0.023190597 0.9936198 0.0030910403
0.82257527 -0.48137957 0.010854304 12362411 -0.098403968 0.0079385312 0.99511492 0.0018130357
0.83863652 -0.48572639 0.012270659 12362927 -0.085977569 0.0097176656 0.99624968 0.0019719698
0.84883189 -0.48748413 0.01302129 12101802 -0.1007162 0.018691858 0.99473959 0.002035853
0.85847455 -0.48270798 0.011346489 12692402 -0.096437149 0.015541255 0.99521774 0.0020472279
0.87638438 -0.48412988 0.012975857 12954551 -0.10293771 0.023049509 0.99442071 0.0025526078
0.88560057 -0.48493403 0.015088178 12495794 -0.075088941 -0.0021830061 0.99717444 0.0023272564
0.89276415 -0.48510522 0.013557106 13284284 -0.085988544 -0.022554763 0.99604082 0.0021587017
0.90555388 -0.48677787 0.017347276 12561587 -0.11557341 -0.0067448174 0.993276 0.0020120095
0.91233814 -0.48493528 0.016259179 13021111 -0.091329932 -0.016414411 0.9956854 0.0022566696
0.92287505 -0.48502192 0.018765122 12562866 -0.1322398 -0.0051693362 0.99120432 0.002226627
0.9315753 -0.48514509 0.016162276 13350335 -0.080499135 -0.036889993 0.99607182 0.0020121124
0.94745326 -0.48731855 0.019061536 13482177 -0.095647104 -0.025900433 0.99507833 0.0019051151
0.82438993 -0.47552469 0.010368913 12428204 -0.10427073 0.025053957 0.99423337 0.0017487457
0.83507955 -0.47365606 0.01384455 12428208 -0.097180754 -0.010674985 0.99520952 0.0023976157
0.85603303 -0.47281909 0.013147195 12626610 -0.072283342 0.0024731362 0.99738103 0.002890432
0.8604905 -0.4715538 0.01010716 13020854 -0.13119908 0.01824183 0.99118823 0.0014390536
0.87613463 -0.47337571 0.013812095 12692401 -0.095788963 -0.0062480285 0.99538201 0.0019267192
0.89375937 -0.4747622 0.01494576 13086649 -0.10697979 -0.0077475081 0.99423099 0.0020854382
0.90642244 -0.47775552 0.015554607 12562354 -0.11697161 -0.0094889728 0.99308991 0.0023531064
0.91191399 -0.47285002 0.018399984 12954550 -0.082723528 0.0062899031 0.99655271 0.0021372656
0.9259963 -0.47234786 0.01843363 12956601 -0.11212367 -0.0061685564 0.99367511 0.0022887688
0.93247378 -0.47422424 0.019820362 13086652 -0.049915805 0.011011364 0.99869275 0.0014815573
0.82242656 -0.46536422 0.010563344 12625581 -0.10239472 0.0036897215 0.99473703 0.0023315712
0.84021664 -0.46582854 0.012272805 12494000 -0.098513246 0.016275076 0.99500269 0.0026710012
0.85679555 -0.46211955 0.012864187 12495279 -0.088321403 0.001214525 0.99609125 0.0019429909
0.87735641 -0.46136525 0.013414875 12561841 -0.091674984 -0.023740044 0.99550593 0.0011261294
0.88049179 -0.46649715 0.013396174 12888759 -0.10739293 -0.00058653398 0.9942165 0.0019740053
0.89393318 -0.46340787 0.015258744 13152441 -0.11079714 0.0027535178 0.99383926 0.0021290907
0.9074533 -0.46852535 0.016163491 12758964 -0.10472148 -0.017912988 0.9943403 0.0016668623
0.91233903 -0.46538687 0.016985103 13086392 -0.080891885 0.0080274623 0.99669051 0.0016848964
0.92832816 -0.46321082 0.018166184 13219262 -0.10563806 -0.02222278 0.99415636 0.0023735636
0.93281937 -0.46620053 0.018446706 12759220 -0.090938076 -0.0056945845 0.99584025 0.0018087601
0.82404351 -0.45501348 0.011059046 12559533 -0.11876467 0.020604864 0.99270862 0.0032519333
0.84342051 -0.45699567 0.01140216 12493999 -0.10271823 0.034010865 0.99412888 0.0022628149
0.8594749 -0.4544844 0.012245148 12888756 -0.086099371 0.0054904181 0.99627137 0.0016987678
0.87517232 -0.45060593 0.014287591 12693171 -0.11004228 -0.01332267 0.99383765 0.0013415106
0.88224375 -0.45648277 0.013095886 12822965 -0.089806333 0.0054712314 0.99594426 0.002878027
0.89275587 -0.45329615 0.016053095 13021112 -0.10583816 0.0052936831 0.99436927 0.0019456574
0.90535289 -0.45304778 0.015902251 12496815 -0.078203239 -0.035276074 0.99631315 0.0010669999
0.91145384 -0.45538932 0.017578453 12955573 -0.096884906 -0.0031276215 0.9952907 0.0026798036
0.92686796 -0.45451593 0.018821964 12825526 -0.12257811 -0.01657676 0.99232048 0.0014407319
0.93500078 -0.45254084 0.019661695 13086904 -0.052852035 -0.001125427 0.99860173 0.0014688409
0.94894207 -0.45462883 0.019775897 13350591 -0.082618624 -0.01753518 0.99642694 0.0011817106
0.84227806 -0.44607744 0.01210323 12625326 -0.080186002 0.019004172 0.99659878 0.0031109035
0.85615516 -0.4455151 0.013657961 12561071 -0.10584513 0.0089329835 0.99434251 0.00176964
0.86186683 -0.44133326 0.010767549 12889526 -0.1118871 -0.017459316 0.99356759 0.0015801163
0.87780869 -0.44368678 0.0137548 12889269 -0.1096076 0.00096525712 0.99397445 0.0017282203
0.88049835 -0.44572854 0.014268816 12299692 -0.071878545 -0.027770117 0.99702674 0.0015144014
0.89356697 -0.44421691 0.016079336 13087161 -0.11307805 -0.010199713 0.99353373 0.0016978097
0.90366173 -0.44044432 0.01669991 12562354 -0.070013441 -0.043198239 0.99661028 0.00084578147
0.91262656 -0.44454387 0.017038912 13020854 -0.10815851 -0.0058644731 0.99411637 0.0021595459
0.92993879 -0.44386142 0.018507957 12759731 -0.12285876 -0.027760381 0.99203587 0.0013960223
0.93587452 -0.44557667 0.017967671 13087418 -0.091065861 0.0016247833 0.99584353 0.0014359627
0.84789336 -0.43820247 0.010366172 12625324 -0.074983701 0.017072292 0.9970386 0.0023172095
0.85888487 -0.43594933 0.012315035 12299433 -0.13403299 -0.031203011 0.99048555 0.0016588042
0.86263609 -0.4337419 0.011775166 12888754 -0.098018512 -0.010325721 0.99513108 0.0018377628
0.87820852 -0.43454713 0.014027074 12627378 -0.111666 -0.0072371056 0.9937194 0.00095468364
0.88090783 -0.43425402 0.014162421 12889266 -0.092337854 0.0035757239 0.99572134 0.0026042503
0.89728403 -0.43635106 0.015131444 13152184 -0.124335 -0.01784428 0.99207985 0.0015033683
0.9044143 -0.43290886 0.016772509 12628147 -0.070913427 -0.023262803 0.99721122 0.00094190123
0.91280591 -0.43457574 0.017835289 13086647 -0.087393723 -0.0019276771 0.99617201 0.0020038597
0.92700952 -0.43000844 0.0199081 13219262 -0.11732274 0.012498872 0.99301517 0.0013675562
0.93071109 -0.43612888 0.018582433 12694451 -0.11723769 -0.021421419 0.99287283 0.0011324777
1.0032299 -0.4323234 0.019626379 12957369 -0.10278113 -0.0361256 0.99404782 0.0038998744
0.82400572 -0.4244504 0.011916801 12559529 -0.055068076 0.0074180267 0.99845505 0.0027463408
0.83918923 -0.42705113 0.010188863 12167845 -0.11873257 -0.032724369 0.99238694 0.0018795149
0.84412938 -0.42455488 0.011346996 12691375 -0.086761683 -0.010965209 0.99616873 0.0023456912
0.85960412 -0.42874742 0.0123844 12299180 -0.13246052 -0.013171101 0.99110079 0.0016907098
0.8634851 -0.42429861 0.011768579 12626350 -0.10434228 0.00060111785 0.99454129 0.0017388761
0.87761158 -0.42349997 0.014873912 12628145 -0.11068501 -0.0080595668 0.99382287 0.0011541181
0.88169116 -0.4237631 0.014196754 12889525 -0.10667335 -0.0058496338 0.99427694 0.0014366349
0.89531136 -0.42409483 0.016203448 13152697 -0.11339369 -0.0023260068 0.99354738 0.0016795322
0.90516686 -0.42537341 0.016845077 12628147 -0.077798799 -0.01470559 0.99686062 0.0005759077
0.91427827 -0.42554316 0.017579868 13152441 -0.099652506 0.010931388 0.99496222 0.0013968167
0.92865008 -0.4271979 0.019322038 12563379 -0.10192323 0.0059536193 0.99477446 0.0012250465
0.93015623 -0.42307153 0.019043356 13416384 -0.11942059 0.014776921 0.99273378 0.0013648409
0.83743227 -0.41519982 0.011047229 12232616 -0.088327728 -0.03263459 0.99555677 0.0024066404
0.84569162 -0.41432798 0.01108785 12691632 -0.085297607 -0.001841094 0.99635381 0.0022750725
0.86385244 -0.41400927 0.01200147 12823218 -0.106264 -0.010749132 0.99427986 0.0020572795
0.87971389 -0.4144696 0.014079005 13020596 -0.12161914 -0.017579107 0.99242115 0.00077067129
0.89479119 -0.41246241 0.016787976 13152698 -0.096140847 -0.0060759285 0.99534923 0.0016055426
0.90629572 -0.41407016 0.016953945 12496560 -0.072501585 -0.012313296 0.99729228 0.00050381821
0.91590834 -0.41453892 0.017424598 13086903 -0.090945363 0.010734123 0.99579805 0.0017952364
0.92980504 -0.41563314 0.019433439 12694451 -0.10219149 -0.0046113175 0.99475408 0.0015744467
0.93625617 -0.41609317 0.018793508 13153211 -0.091544196 0.005110146 0.99578792 0.0015076102
0.81179613 -0.40740114 0.010768905 12166305 -0.11423627 -0.018476918 0.99328184 0.0045372983
0.84433776 -0.40430307 0.011055171 12560559 -0.088963419 -0.014599588 0.99592787 0.0015799254
0.8581121 -0.40930092 0.013413519 12364972 -0.10752731 0.0054760822 0.99418706 0.001363132
0.86290431 -0.40563816 0.013499409 12888498 -0.13135213 -0.011952495 0.99126375 0.00073861022
0.87833381 -0.40727836 0.015858762 12627121 -0.095006607 -0.0064950227 0.99545544 0.0010089627
0.8839975 -0.40214899 0.013446853 12693171 -0.12559819 -0.016598916 0.99194229 0.0012252033
0.89632672 -0.4036094 0.016573414 13152697 -0.093801588 -0.015697949 0.99546719 0.0015082197
0.90458989 -0.40161458 0.017750144 12562864 -0.065453984 -0.013925517 0.99775845 0.0011163729
0.91780442 -0.40386465 0.017564407 13086646 -0.082998842 0.010466882 0.99649465 0.0013628876
0.93645567 -0.40906063 0.017316788 13219003 -0.12040448 0.021167025 0.99249929 0.0013224006
0.9548974 -0.40692806 0.019492418 13350591 -0.082063645 -0.0021422021 0.99662483 0.0011902385
0.83953774 -0.39411709 0.011250287 12298410 -0.062583901 -0.01075502 0.99798179 0.0016334351
0.8464309 -0.39282274 0.011457115 12757425 -0.10594013 -0.013461635 0.99428141 0.0012271302
0.86326647 -0.39672905 0.012509245 12823730 -0.10559502 -0.012126613 0.99433529 0.0012919137
0.87926644 -0.39393902 0.015837461 12954548 -0.09638527 -0.014375934 0.99524033 0.0010659848
0.88281816 -0.39299574 0.015475631 12496818 -0.10692419 -0.003953604 0.99425936 0.0017811395
0.89406979 -0.39456424 0.01659593 13153210 -0.084849834 -0.016783843 0.99625242 0.0019514601
0.90443146 -0.39487445 0.016791373 12824497 -0.082501031 -0.021173794 0.99636602 0.0013113387
0.91762286 -0.39387709 0.017547518 13086647 -0.073078558 -0.0064238082 0.99730551 0.0011914361
0.93339109 -0.39609429 0.018952608 13153465 -0.11948002 -0.0043767681 0.99282694 0.0019156582
0.94103384 -0.39190239 0.017701209 12759731 -0.10739411 -0.022029486 0.99397242 0.0029924067
0.81700027 -0.38470533 0.010220617 12035236 -0.11046299 -0.011052168 0.99381882 0.0050476864
0.82957351 -0.38588914 0.01099658 12756397 -0.082737796 -0.023898261 0.99628478 0.00137939
0.84641445 -0.38561356 0.010934316 12495021 -0.093197517 -0.024528651 0.99534547 0.0011898953
0.86473829 -0.38517678 0.012837052 12758194 -0.11823326 -0.010859554 0.99292648 0.00088275352
0.87907112 -0.3881126 0.015186861 12889524 -0.11503445 -0.013371482 0.99327153 0.0010145865
0.88255483 -0.38226432 0.014652565 12693427 -0.12420844 -0.0092569403 0.99221301 0.0019421448
0.89598674 -0.38340959 0.016309559 13284283 -0.085323215 -0.0059657358 0.99633551 0.0027064183
0.90635312 -0.38419348 0.016548485 12824241 -0.076361001 -0.026204512 0.99673581 0.0019205277
0.9170717 -0.38387477 0.018012524 13086646 -0.088467233 -0.016107526 0.99594885 0.0012466991
0.93541437 -0.38288945 0.01880683 12956600 -0.10463842 -0.029512441 0.99407238 0.0021096636
0.81708717 -0.3740308 0.01057905 12101286 -0.10849498 -0.038198233 0.99336284 0.0035084137
0.82939893 -0.37555358 0.011344343 12756908 -0.091485575 -0.028983589 0.99538451 0.0017903155
0.84594506 -0.37467366 0.011334452 12626863 -0.088866644 -0.014069857 0.99594414 0.001142334
0.86445552 -0.37444243 0.013287579 12627121 -0.11080991 -0.0053584073 0.9938271 0.00068501086
0.87932783 -0.37501574 0.015537232 13086390 -0.10734932 -0.0062564537 0.99420172 0.0015335915
0.89813972 -0.37191147 0.016932368 13217717 -0.085527509 -0.0045070848 0.99632561 0.0014607309
0.91873181 -0.37280154 0.017888665 13152181 -0.084569983 -0.018915851 0.99623799 0.00092994247
0.93792635 -0.37676656 0.018022507 13350076 -0.11926231 -0.020469524 0.99265182 0.0010247335
0.94258749 -0.3763462 0.017851025 12759731 -0.097455382 -0.026840487 0.99487793 0.0035221032
0.81588912 -0.36641836 0.011163622 12167079 -0.10278032 -0.037805811 0.99398541 0.0034437114
0.83211291 -0.36629158 0.010632426 12756651 -0.090531275 -0.026983801 0.99552798 0.0015847698
0.84658456 -0.36270049 0.01165687 12757679 -0.082716867 -0.018209804 0.99640673 0.0010839175
0.86524993 -0.36635432 0.012880703 13086390 -0.10157317 -0.011230931 0.99476469 0.0015959311
0.88244593 -0.36553502 0.015704967 12824498 -0.11674234 -0.018644823 0.99298722 0.0017265268
0.89825916 -0.36444765 0.016193867 13349560 -0.094456822 0.0026189983 0.99552554 0.0022185952
0.90009606 -0.36679405 0.018657804 12955571 -0.089882135 -0.023815284 0.99566758 0.0012757485
0.91809022 -0.36292893 0.018401787 13086645 -0.092350401 -0.02335201 0.9954527 0.0013981136
0.93829411 -0.36869305 0.018198937 13218490 -0.10695451 -0.004402414 0.99425417 0.00091517926
0.81691241 -0.35617268 0.011262313 12232615 -0.10083891 -0.021971382 0.99466014 0.0016555036
0.83530748 -0.35479155 0.011930823 12626092 -0.077948712 -0.028669292 0.99654508 0.001093446
0.84936208 -0.35498217 0.012165219 12888755 -0.08522363 -0.044482838 0.99536842 0.00068293186
0.86469227 -0.35550281 0.013604105 12890036 -0.10361326 -0.031449821 0.9941203 0.0016627737
0.88647729 -0.35539094 0.014445484 12824246 -0.10912471 -0.015770847 0.99390292 0.0015309743
0.89740223 -0.35232919 0.016988784 13349817 -0.098302707 -0.00014900973 0.99515653 0.0019447855
0.90457559 -0.35698849 0.017939612 12824498 -0.087757036 -0.01779628 0.99598294 0.0015264542
0.9187746 -0.35474432 0.017315805 13152697 -0.082187839 -0.027356017 0.99624139 0.0016938053
0.92054486 -0.35659087 0.018972099 13086134 -0.12643753 0.0059032906 0.99195701 0.0020515989
0.93428421 -0.35455063 0.019622961 13218235 -0.10967933 -0.016129486 0.99383616 0.0013055886
0.82452971 -0.34562689 0.011667222 12560556 -0.097215772 -0.016987927 0.99511838 0.0024941971
0.8477934 -0.34662941 0.011505078 12692914 -0.11308479 -0.018266447 0.99341744 0.0023020597
0.85014719 -0.34474203 0.012176126 12888496 -0.09495347 -0.050461095 0.99420196 0.00085530593
0.86519873 -0.34740287 0.014081813 12824499 -0.10956814 -0.045276113 0.99294758 0.00074496062
0.88427269 -0.34348664 0.01579231 12693170 -0.10280734 -0.018159105 0.99453551 0.0018540468
0.89654416 -0.3402335 0.017783225 13086902 -0.088740118 -0.016304048 0.99592137 0.0019380928
0.90434372 -0.34553328 0.018282741 12824498 -0.079564005 -0.0030812265 0.99682504 0.0018390364
0.91913575 -0.34681541 0.017489076 13086904 -0.085512578 -0.021579804 0.99610341 0.0018982092
0.92319399 -0.34236056 0.018540114 13020595 -0.12804669 -0.0080660749 0.99173534 0.0020986951
0.9366048 -0.34363267 0.019762933 13283515 -0.10206217 -0.039124496 0.99400836 0.0010976872
0.81675434 -0.33426261 0.011119366 12428714 -0.09998744 -0.0085552465 0.99495196 0.0021818639
0.83020234 -0.33814201 0.012091309 12691115 -0.11666667 -0.025998604 0.99283081 0.0014018919
0.84326875 -0.33454639 0.013478786 12495020 -0.082550555 -0.025160767 0.99626923 0.0017364887
0.85031742 -0.33085653 0.011737406 12889267 -0.1285627 -0.016974814 0.99155611 0.0024768151
0.86518365 -0.33733964 0.014273956 12823987 -0.095726222 -0.031569734 0.99490696 0.0016353851
0.88302755 -0.33488435 0.01694116 12627634 -0.10183455 -0.029117735 0.99437511 0.001183362
0.89968377 -0.33519188 0.018443435 13152181 -0.054773469 -0.02040042 0.99829042 0.00075415877
0.90547216 -0.33360031 0.017441228 12758963 -0.093567312 -0.0070289667 0.99558812 0.0022663269
0.9182843 -0.33450252 0.018277302 13086391 -0.082457818 -0.014424492 0.99649018 0.0014083654
0.92306572 -0.33476976 0.01879552 13020082 -0.10548036 -0.01763219 0.99426508 0.0022904503
0.9397648 -0.33639902 0.018904686 13087419 -0.10331631 -0.03824177 0.99391317 0.0010789626
0.81998217 -0.32543552 0.011558354 12363945 -0.090556987 -0.014167452 0.99579054 0.0024113539
0.83240294 -0.32721883 0.011383057 12625580 -0.12748618 -0.0098816622 0.99179107 0.0019676066
0.84373307 -0.32579425 0.013647377 12560556 -0.085904755 -0.011359707 0.99623859 0.0024652954
0.8599391 -0.32968214 0.015967935 13151927 -0.11090314 -0.021615691 0.9935962 0.0029103735
0.86414462 -0.32333064 0.014934222 12692401 -0.10452224 -0.0031780377 0.99451751 0.0023998008
0.87906784 -0.32530263 0.017828196 12692403 -0.093067169 -0.014429418 0.99555528 0.001115303
0.88265038 -0.32340702 0.016243318 12758196 -0.084973633 -0.00015614004 0.99638319 0.002655701
0.89955854 -0.32777616 0.01869294 13086388 -0.040540595 -0.01828449 0.99901062 0.000859041
0.90611279 -0.32399988 0.017605253 12692915 -0.085464709 0.0014428673 0.99634016 0.0020600939
0.92303026 -0.32553381 0.018060043 13020084 -0.1005481 -0.024900399 0.99462056 0.0018258005
0.94091964 -0.32608056 0.019397222 12759222 -0.08919806 -0.014235832 0.99591219 0.0016346781
0.81674713 -0.31683221 0.010353714 12493736 -0.10460524 0.0095294863 0.99446821 0.0016505388
0.82066435 -0.31860507 0.011624157 11904934 -0.098748878 -0.0050676055 0.99509954 0.0034332736
0.83123726 -0.31444257 0.012376934 12625324 -0.13914676 0.029359039 0.98983651 0.0013810493
0.84750915 -0.3163693 0.012857243 12494764 -0.092934668 -0.00019020325 0.99567223 0.002727591
0.85237539 -0.31639445 0.011490405 12823216 -0.13177465 0.0039084982 0.99127203 0.0018371359
0.86279768 -0.3149285 0.015807083 12561072 -0.10038892 0.0014591722 0.99494725 0.0022876763
0.87984926 -0.31469747 0.017866343 12757171 -0.096085027 0.005912913 0.99535555 0.0010087162
0.88248461 -0.31299198 0.015964985 13020343 -0.067103781 0.019736255 0.99755079 0.0027958248
0.89464623 -0.31427813 0.017820925 12626866 -0.084992886 -0.016735498 0.99624103 0.0020388882
0.90622503 -0.31230718 0.017958507 12561587 -0.093860552 0.00055988977 0.9955852 0.0021500373
0.91779095 -0.31432915 0.01923731 12954550 -0.091656305 -0.026248029 0.99544472 0.0014027909
0.92129374 -0.31538558 0.019903094 12888240 -0.093897022 -0.0076905997 0.99555224 0.0036342898
0.94268125 -0.31627348 0.019736826 12496560 -0.086652748 -0.015982328 0.99611038 0.0017936698
0.82202864 -0.30494416 0.01175572 12495019 -0.086378254 -0.030796448 0.99578631 0.0047317864
0.83525938 -0.30459395 0.011021574 12625328 -0.10488505 -0.0060550906 0.99446595 0.0011424512
0.84460235 -0.30478007 0.014102653 12495022 -0.10711849 0.0036493528 0.99423963 0.0029633678
0.85426509 -0.30562663 0.011162668 12692146 -0.13154233 -0.0084568076 0.99127448 0.0020926837
0.86615384 -0.30538407 0.01475282 12561073 -0.094785407 -0.0029312507 0.99549347 0.0031121923
0.8849116 -0.30339238 0.016752372 12561072 -0.091477156 -0.014578582 0.99570048 0.0039023624
0.90298069 -0.3046312 0.017479435 12889525 -0.090338781 -0.028860753 0.99549288 0.0033732699
0.91815102 -0.30642301 0.019410074 12954291 -0.11899292 -0.017255848 0.99274516 0.0015164207
0.82271081 -0.2981137 0.011821508 11971242 -0.08310318 -0.043476656 0.99559212 0.0042571435
0.83788252 -0.2938762 0.012084668 12034726 -0.094987072 -0.030164866 0.99502134 0.0028750005
0.84305793 -0.29016906 0.013987958 7037020 -0.099681199 -0.05848784 0.99329907 0.0039842548
0.85250276 -0.2969467 0.012466714 11771303 -0.11994191 -0.0077723186 0.99275047 0.0011262451
0.86796808 -0.29546207 0.014541909 12561336 -0.11081161 -0.01719968 0.99369258 0.0040468555
0.87434053 -0.29593182 0.013302833 8416109 -0.088485576 -0.035099085 0.9954589 0.0033045055
0.8854028 -0.29311338 0.017554611 9733260 -0.10598057 -0.02995903 0.99391681 0.0047616628
0.89093983 -0.29195589 0.013538718 9403296 -0.07897374 -0.015630532 0.99675417 0.0026464611
0.90460634 -0.29567274 0.01748091 11245475 -0.089216419 -0.028758211 0.99559689 0.0036326796
0.91851109 -0.2985169 0.019582868 13086136 -0.13434142 -0.026563125 0.99057901 0.0021993504
0.92166346 -0.29131284 0.018702 10457237 -0.11711136 -0.028146738 0.99271983 0.0030278107
0.9487505 -0.29592496 0.019897848 11116976 -0.12444025 0.0054725935 0.99221206 0.0035119569
0.79980546 -0.28496018 0.010406137 14400181 -0.089828983 -0.0362022 0.99529904 0.0020595796
0.81809247 -0.28333929 0.010783225 13546159 -0.083512947 -0.060297377 0.99468076 0.0013332458
0.83170885 -0.28691506 0.01137542 12822426 -0.096224941 -0.052128673 0.99399364 0.0030300592
0.84453601 -0.28344768 0.014671177 14336950 -0.094911605 -0.041240528 0.99463111 0.0026966841
0.85234892 -0.28625053 0.012712196 11703956 -0.14039187 -0.019724794 0.98989952 0.0014733963
0.86592656 -0.28460029 0.015645117 10322055 -0.096889786 -0.027734837 0.99490863 0.0037927516
0.88225287 -0.28638056 0.017863244 11441790 -0.10259553 -0.031735998 0.9942168 0.0057380293
0.89129126 -0.28424004 0.01370734 14862272 -0.081450135 -0.051608019 0.99534041 0.0032424415
0.90337461 -0.28306249 0.017442256 10254469 -0.14769472 -0.053955697 0.98756015 0.0022536924
0.91557324 -0.28333312 0.019913055 12626845 -0.10242026 -0.054835759 0.99322861 0.0028802888
0.941971 -0.28795788 0.019963264 5252632 -0.05176327 -0.0013851655 0.99865848 0.0018507832
0.79963613 -0.27493301 0.010743529 12757167 -0.10331359 -0.029251345 0.99421865 0.0017517627
0.80389947 -0.27148727 0.010801286 12495791 -0.11084045 -0.0404769 0.99301362 0.0024028127
0.81685656 -0.27388865 0.012657796 12692149 -0.092623152 -0.045493294 0.99466145 0.0025291413
0.82543951 -0.27079183 0.012084663 12299180 -0.10098441 -0.038657159 0.99413675 0.0032252835
0.8367942 -0.2760278 0.011467953 13085878 -0.098806046 -0.038743187 0.99435222 0.0025465458
0.84721476 -0.27712196 0.014104769 12954808 -0.099476092 -0.039263848 0.99426502 0.0028451621
0.85288596 -0.27154541 0.013167918 13151925 -0.10908106 -0.038143549 0.99330074 0.0020003053
0.8652789 -0.27447695 0.016076028 13086392 -0.091142081 -0.035208128 0.9952153 0.0034049568
0.88385493 -0.27572015 0.018059358 12955831 -0.10208923 -0.045320116 0.99374235 0.0037186912
0.89972544 -0.27037969 0.019309759 13153723 -0.13623346 -0.075160325 0.98782152 0.0019998713
0.90157968 -0.27658856 0.019481868 13086388 -0.065703042 -0.020667722 0.99762517 0.0048147854
0.79946679 -0.26490578 0.011080891 12757423 -0.12137224 -0.026633851 0.99224967 0.001056747
0.80266482 -0.26426181 0.011397228 12168104 -0.10849545 -0.020286696 0.99388993 0.0021706566
0.81780446 -0.26628473 0.011357039 12822705 -0.091126658 -0.03134517 0.99534589 0.0022577366
0.82283723 -0.26189721 0.011604294 12692145 -0.098241128 -0.047346059 0.99403572 0.0026250957
0.83234185 -0.26654512 0.013306141 13150900 -0.085818037 -0.037934542 0.99558836 0.002245378
0.84369898 -0.26560053 0.013475135 12824242 -0.09491881 -0.033499181 0.99492127 0.0025792832
0.8563028 -0.26088366 0.012140453 13086388 -0.097864419 -0.039149571 0.99442947 0.0024738568
0.8656249 -0.26770347 0.016424894 12955315 -0.10745078 -0.042735904 0.99329144 0.0040772362
0.87074506 -0.26095361 0.01496163 12889525 -0.097415514 -0.044915833 0.99422979 0.002887062
0.88544536 -0.26479122 0.017720267 13020854 -0.10217819 -0.031295214 0.99427372 0.0037839601
0.90191942 -0.26471874 0.019412607 13217976 -0.088200152 -0.023090646 0.99583513 0.0039531998
0.8044343 -0.25507417 0.010749687 12495277 -0.10786263 -0.011098886 0.99410379 0.0013168358
0.81571257 -0.25557277 0.012414843 12888244 -0.090167589 -0.011125009 0.99586451 0.0015874298
0.82666922 -0.25357699 0.01237826 12429996 -0.089866601 -0.017169056 0.9958058 0.0017521216
0.83308488 -0.25612298 0.0134872 12954290 -0.088597596 -0.03161487 0.99556565 0.0018490275
0.8450433 -0.25704342 0.015296608 12889523 -0.10345295 -0.012039184 0.99456155 0.0013910923
0.85110253 -0.25216556 0.0145832 13086134 -0.094010808 -0.05974951 0.99377662 0.0020381135
0.86576414 -0.25508201 0.016841471 13020853 -0.10229798 -0.019690385 0.99455893 0.0014460814
0.88525164 -0.25404125 0.01795914 12823731 -0.095345803 -0.025059666 0.99512875 0.0026146802
0.90479529 -0.25186798 0.018123955 12955318 -0.119091 -0.032416482 0.99235404 0.0015733076
0.80380994 -0.24503598 0.010944575 12560556 -0.099252768 -0.021502785 0.99482989 0.00086039462
0.81554019 -0.24536286 0.012758374 13019571 -0.087149985 -0.010754199 0.9961372 0.0011816827
0.82314897 -0.24602845 0.012078881 12626606 -0.10236353 -0.026844876 0.99438477 0.0018402502
0.83615869 -0.24577905 0.012858301 12954291 -0.10178443 -0.043298222 0.99386376 0.0019793632
0.84629124 -0.24482419 0.015199522 12627378 -0.10399093 -0.026414845 0.99422747 0.001558131
0.85068524 -0.24084578 0.01520595 13020596 -0.090841889 -0.065921083 0.99368113 0.0016195942
0.86594242 -0.24407493 0.016897753 12823731 -0.1018547 -0.032438993 0.99427021 0.0014767935
0.87202597 -0.24906015 0.014417291 13020595 -0.10230517 -0.055313509 0.99321401 0.0015777035
0.88362181 -0.24337906 0.018462107 12954548 -0.084339485 -0.024637414 0.99613243 0.0012524312
0.89018255 -0.24057515 0.018807426 12364975 -0.10564013 -0.053916544 0.99294168 0.0012069496
0.9039734 -0.24746528 0.019528419 13151927 -0.096274078 -0.0032651778 0.99534953 0.0008831303
0.78347862 -0.23205943 0.011033654 12429739 -0.088507123 -0.026786806 0.99571532 0.0012890508
0.80469829 -0.23513839 0.011078477 12691629 -0.10185952 -0.022738291 0.9945389 0.00090896396
0.81728601 -0.23558646 0.012389928 12888498 -0.08175762 -0.01619553 0.99652064 0.00085706852
0.82281113 -0.23521604 0.012185494 12626095 -0.12222268 -0.028012104 0.99210733 0.00093056652
0.83725333 -0.23366928 0.012754455 13020084 -0.11103909 -0.018540146 0.99364311 0.00090566685
0.84751129 -0.2346769 0.015394166 12758196 -0.11317099 -0.02449926 0.99327344 0.0014274707
0.86478186 -0.23420784 0.017632738 12692659 -0.09900865 -0.041449748 0.99422294 0.0014768832
0.88548142 -0.2343342 0.018111333 12823219 -0.079992987 -0.029683372 0.99635339 0.00085478491
0.90400058 -0.23609489 0.01930216 13020597 -0.098604701 -0.026351018 0.99477768 0.00090504397
0.78739983 -0.2234928 0.010568921 12561069 -0.078359075 -0.033766642 0.99635321 0.0017107244
0.80463696 -0.22497895 0.011379644 12626606 -0.10093852 -0.0265217 0.99453914 0.0007762129
0.81711322 -0.22535372 0.012734205 13019573 -0.082333244 -0.011103312 0.99654299 0.0006740269
0.82433939 -0.22373652 0.013114761 12495535 -0.10412394 -0.034792513 0.99395555 0.0011019214
0.8345204 -0.22557984 0.013660908 12954289 -0.099359564 -0.031643745 0.99454832 0.0010044682
0.84923553 -0.22800864 0.015171036 12823987 -0.12703183 -0.03314032 0.99134487 0.0011683352
0.85154247 -0.22474509 0.015341729 13086134 -0.1017435 -0.036773268 0.99413067 0.00085901562
0.86760128 -0.22340417 0.017092943 13085877 -0.093454316 -0.033264253 0.99506772 0.0011442411
0.88682288 -0.2226591 0.018863296 12758194 -0.087512352 -0.037859362 0.99544376 0.00082756038
0.9055655 -0.22498636 0.019292593 13085877 -0.10910994 -0.031779598 0.99352157 0.001419115
0.7895205 -0.21571305 0.010412768 12626606 -0.076300927 -0.039336186 0.99630862 0.0017929024
0.80666065 -0.21556899 0.011253241 12626864 -0.094461851 -0.041822236 0.99464959 0.0012648606
0.81885803 -0.21550882 0.012368053 13150902 -0.092182413 -0.019313052 0.9955548 0.00073499541
0.82419425 -0.21463172 0.014414907 12364721 -0.089859448 -0.052733939 0.99455744 0.001203504
0.8356263 -0.21561535 0.014137874 13020084 -0.12596461 -0.038445938 0.9912895 0.0012709964
0.8472411 -0.21519119 0.016084135 12889525 -0.11287822 -0.03050583 0.99314046 0.0010833798
0.85295904 -0.21140231 0.015473992 13086134 -0.10568703 -0.029242849 0.99396938 0.0011029337
0.86319411 -0.21848395 0.01858411 12758195 -0.10827097 -0.025131034 0.99380374 0.0014631365
0.87096584 -0.21074747 0.016358644 13151670 -0.094411254 -0.036897022 0.99484938 0.00065038737
0.88406986 -0.21348126 0.019288033 13020342 -0.080862276 -0.043801319 0.99576241 0.0011295062
0.78798199 -0.20653464 0.01073806 12429998 -0.074095473 -0.058684781 0.99552298 0.0020804428
0.79210752 -0.20784523 0.01010713 12823216 -0.085620552 -0.029450791 0.99589252 0.0021713264
0.8064155 -0.20330459 0.011552279 12889011 -0.10318747 -0.054683924 0.99315763 0.0013728961
0.81772614 -0.20506692 0.01306808 13084853 -0.096337393 -0.039504029 0.99456447 0.0007323001
0.82285887 -0.20689759 0.013733737 12692402 -0.095346034 -0.061774258 0.99352562 0.0013238785
0.83530974 -0.20294993 0.014527902 13020085 -0.11564724 -0.05674769 0.99166799 0.0011767248
0.84770143 -0.20645602 0.016253024 12889525 -0.090128794 -0.034901362 0.99531841 0.0017546157
0.85346532 -0.20028508 0.01571694 13151927 -0.10503593 -0.041274723 0.99361151 0.0010805059
0.86462229 -0.20599358 0.018614838 12823732 -0.11320495 -0.029213145 0.99314207 0.0015001273
0.88566405 -0.20432919 0.01899007 13020085 -0.085807785 -0.048073832 0.99515122 0.0014284474
0.76738334 -0.19868216 0.010178849 12232361 -0.10414452 -0.058283273 0.99285299 0.0016479498
0.78671098 -0.19772318 0.010978505 12692145 -0.087381423 -0.046173468 0.99510425 0.0012796019
0.79274309 -0.19388969 0.010412112 12888752 -0.098129794 -0.033910364 0.99459571 0.0022131994
0.80252349 -0.19421361 0.013008572 12757682 -0.10154911 -0.048686977 0.99363846 0.0012743736
0.81950629 -0.19294237 0.016413167 12627118 -0.078511775 -0.062774383 0.99493486 0.0016738953
0.82329428 -0.19741848 0.011809155 13019829 -0.10819824 -0.057463225 0.99246722 0.0011157017
0.83405077 -0.19777478 0.014596432 13085877 -0.11918566 -0.06389486 0.99081391 0.00092889444
0.84795845 -0.19769433 0.016464546 12889523 -0.080102026 -0.030558851 0.99631816 0.0020020213
0.85380286 -0.19287357 0.015878916 13152179 -0.10643819 -0.03884583 0.99356025 0.0010377152
0.86624151 -0.19535458 0.018578609 12823730 -0.10689752 -0.036133733 0.99361318 0.0019703137
0.87173516 -0.19008635 0.016511977 12822453 -0.08359088 -0.018426795 0.99632978 0.0022980804
0.88446766 -0.19471627 0.019784391 12954548 -0.10445298 -0.047490284 0.99339533 0.0019313251
0.76451069 -0.18835291 0.011391431 12233135 -0.11799803 -0.077512778 0.98998398 0.0022999337
0.78683376 -0.18519668 0.011678387 13615316 -0.077620231 -0.055404879 0.99544233 0.0015707674
0.80299693 -0.18560328 0.01315847 14272473 -0.10383613 -0.064999126 0.9924683 0.0016949028
0.81852102 -0.1841616 0.014225289 13811668 -0.11012767 -0.061568718 0.99200869 0.0014011502
0.82081938 -0.18532377 0.015236259 13088197 -0.1052836 -0.061410382 0.99254435 0.0019584983
0.83258688 -0.18833014 0.016038522 13547201 -0.096642792 -0.050262049 0.99404925 0.0011245336
0.84650761 -0.185959 0.017852157 13875401 -0.07567142 -0.025783377 0.99679941 0.0023383186
0.85182726 -0.18505648 0.016105831 13746384 -0.11254159 -0.03654328 0.99297482 0.002162284
0.8693924 -0.18408751 0.018033395 13878743 -0.10283674 -0.028665489 0.99428511 0.002324091
0.88561815 -0.18245324 0.019899875 12822964 -0.11176518 -0.077487648 0.99070895 0.0014485972
0.76449925 -0.17869471 0.011762723 13683425 -0.092902571 -0.041526496 0.99480891 0.0024650176
0.77769536 -0.17753208 0.010238796 14339820 -0.086728543 -0.081329174 0.99290669 0.0023323568
0.78828019 -0.17640218 0.010733157 14338799 -0.1183915 -0.062168699 0.99101895 0.0016112658
0.79206622 -0.17351724 0.011074156 14077675 -0.095693484 -0.054471023 0.99391931 0.0018650611
0.80363923 -0.17656828 0.013249367 14340333 -0.10172933 -0.071084321 0.99226916 0.0019844358
0.81534874 -0.17745267 0.014694571 14602479 -0.11836067 -0.066154137 0.99076456 0.0013731677
0.8253693 -0.1734539 0.015578389 13683943 -0.087717906 -0.069783933 0.99369806 0.0021428608
0.83344054 -0.1777897 0.016043097 14471148 -0.092314608 -0.040977571 0.9948864 0.0019921474
0.84496778 -0.1760287 0.017964318 14143211 -0.071065113 -0.052338056 0.99609762 0.001802234
0.85296124 -0.17038614 0.017121106 14471149 -0.11117357 -0.028581005 0.99338996 0.0021046321
0.86771315 -0.17528203 0.01887048 14405607 -0.11596516 -0.04008016 0.99244434 0.0019670271
0.92709923 -0.17623192 0.019920915 12430768 -0.079024218 0.020709846 0.99665755 0.0050103278
0.76212901 -0.16525684 0.012069722 13748709 -0.10022018 -0.041442994 0.99410182 0.00279289
0.77908021 -0.16737321 0.010048836 14143211 -0.087526202 -0.080575734 0.99289817 0.0030918152
0.78620178 -0.16618988 0.011804193 14339052 -0.10979221 -0.068957359 0.99155968 0.0017859715
0.79018229 -0.16893533 0.012576044 14406122 -0.10103602 -0.056667414 0.99326766 0.0023707582
0.80376804 -0.16635203 0.014006652 14142953 -0.11320692 -0.057392806 0.99191242 0.0019397221
0.81421828 -0.16708688 0.015392035 14273259 -0.10435171 -0.084744811 0.99092335 0.0020404118
0.8246085 -0.16729133 0.016048938 14208234 -0.090843208 -0.052620806 0.99447393 0.0022132897
0.83803803 -0.16489674 0.016878694 14077420 -0.074767396 -0.022394842 0.99694955 0.0010191355
0.85212517 -0.16424416 0.017077506 14339566 -0.087430045 -0.037157979 0.99547744 0.0022932068
0.8677876 -0.1644631 0.018996447 14471146 -0.10803705 -0.03393181 0.99356765 0.0020441664
0.88695955 -0.16692717 0.019651949 12955834 -0.16477917 -0.087300204 0.98245943 0.0058844811
0.76388246 -0.15733746 0.011655003 13813732 -0.10876321 -0.031242859 0.99357659 0.0031270259
0.77258396 -0.15762648 0.010402054 14273259 -0.11085504 -0.062816225 0.99184942 0.0017991875
0.78625417 -0.15605673 0.013204854 14076904 -0.09285789 -0.046759557 0.99458081 0.0022705775
0.79726291 -0.15185569 0.016953796 13486306 -0.078830853 -0.035478219 0.99625647 0.0020111504
0.80356872 -0.15770419 0.013596818 14273772 -0.1159766 -0.061445314 0.99134952 0.0020128675
0.81891274 -0.15447265 0.015055493 14207977 -0.07888598 -0.048711684 0.99569285 0.001586101
0.82333636 -0.1577746 0.016782021 14208493 -0.083331116 -0.049490675 0.99529225 0.0018498743
0.84138632 -0.15412335 0.014573425 14208491 -0.093831867 -0.011716451 0.99551916 0.0020039808
0.853194 -0.15713152 0.016939536 14340078 -0.083582923 -0.029281352 0.99607056 0.0021272288
0.75457007 -0.14681752 0.010063834 14010855 -0.10260402 -0.051613625 0.99338233 0.0023687542
0.76479089 -0.14756459 0.011634447 13748194 -0.10920183 -0.038517874 0.99327308 0.0030194826
0.77141035 -0.14449003 0.011215299 14207209 -0.11412635 -0.076309733 0.99053121 0.0016261679
0.78395742 -0.14614448 0.013206035 14338798 -0.10492405 -0.076999083 0.99149489 0.001552536
0.792638 -0.14780197 0.014654472 14405102 -0.10659203 -0.086096294 0.99056834 0.0017005058
0.80597222 -0.14987418 0.014110953 14141930 -0.085867353 -0.04978798 0.99506181 0.0023560622
0.75449955 -0.1389083 0.010359623 14076649 -0.097379833 -0.038354192 0.99450803 0.0021345362
0.76666111 -0.13792816 0.011334464 13946342 -0.093244955 -0.054823253 0.99413264 0.0037469994
0.77574432 -0.13937652 0.012720466 14340077 -0.11533175 -0.02207692 0.99308169 0.0031112169
0.73337054 -0.12721378 0.012016766 13682663 -0.10780954 -0.064264178 0.99209237 0.0028245323
0.70968586 -0.10933772 0.010831743 13154527 -0.12726983 -0.053841915 0.99040574 0.0031425513
0.685166 -0.099683493 0.019857496 11643853 -0.029856164 -0.43121776 0.90175372 0.16179037
0.69258589 -0.097740568 0.012028493 11842003 -0.80242145 -0.54093951 -0.25200042 0.011156918
0.67445886 -0.088176861 0.019784257 8616594 -0.79198486 -0.59924155 -0.11691701 0.11196618
0.68522823 -0.085251778 0.011626311 9670568 -0.80522937 -0.53577596 -0.25406647 0.011212498
0.67405403 -0.076686718 0.012331638 6642804 -0.84699064 -0.49781847 -0.1865038 0.060571909
0.66592467 -0.066164687 0.012507979 5392476 -0.85926735 -0.48134372 0.17311233 0.081797712
0.6715157 -0.069129914 0.013155989 3352633 -0.8412385 -0.4999522 -0.20582928 0.013502559
0.65975159 -0.050201423 0.012809284 4076601 -0.94580865 -0.32280791 -0.035229463 0.015052424
0.66298568 -0.056670733 0.013877722 4339266 -0.7568351 -0.28517425 0.58811235 0.06495063
0.65500182 -0.047252733 0.017334193 3155245 -0.72753716 -0.14170794 0.67127383 0.07907135
0.66037333 -0.047985408 0.015360326 3285038 -0.33166772 -0.12059874 0.93565619 0.031347822
0.65654624 -0.036960348 0.013424888 2760737 -0.98979282 -0.13649388 0.040982015 0.041655734
0.65598315 -0.026803302 0.015537903 2628380 -0.98532397 -0.16673617 -0.036548138 0.13029516
0.65551132 -0.016320711 0.015289691 1905169 -0.76126236 0.12915024 0.63545239 0.044434171
0.66455781 -0.0166311 0.01429604 2364438 -0.36646205 0.041747738 0.92949593 0.029570257
0.65706217 -0.0063900165 0.015079526 1905426 -0.96599096 0.23609182 0.10546148 0.038321219
0.66309595 0.0069022435 0.01405783 1773582 -0.91686881 0.39381367 0.065286852 0.076075613
0.66659528 0.012338568 0.014157422 2299921 -0.88473052 0.44049394 -0.15237181 0.010055192
0.6689775 0.025824608 0.018664405 1511181 -0.40312257 0.19301724 0.89455944 0.094185881
0.67400432 0.023991374 0.013281971 2299666 -0.78164881 0.4398137 0.44225451 0.029435314
0.67716223 0.032235689 0.012133092 2890521 -0.27938938 0.092520595 0.95570993 0.028302332
0.68130261 0.031928711 0.010159157 4141348 -0.76491702 0.55528408 -0.32643792 0.0080121458
0.68879515 0.045504086 0.012244446 3153434 -0.45451161 0.30079412 0.8384164 0.015656836
0.69314271 0.049563188 0.014240992 3153176 -0.56702483 0.42715532 0.70428771 0.011352323
0.6879552 0.051878985 0.011829704 4074279 -0.17789112 0.082395919 0.98059458 0.0047624055
0.69534063 0.057374384 0.010796726 3745567 -0.16476639 0.086011119 0.98257524 0.0065676207
0.70130438 0.057999603 0.013774507 3811870 -0.64971465 0.50199211 -0.57085449 0.0079586189
0.71101218 0.059760187 0.01237455 2890773 -0.13499549 0.039419796 0.99006182 0.0017968221
0.69762635 0.069644466 0.011185721 4798254 -0.13905092 0.045091316 0.98925817 0.0019093867
0.70383221 0.065666124 0.011577398 4533800 -0.17084783 0.063327558 0.98326021 0.0019540314
0.71264434 0.067511134 0.013290867 3811104 -0.13504456 0.059070285 0.98907715 0.0012855893
0.70748806 0.073018551 0.010803968 4994864 -0.15662999 0.10015781 0.98256576 0.0055489987
0.71678162 0.075055398 0.012549177 4600106 -0.14177482 0.060405158 0.98805428 0.0019342043
0.70339382 0.083913535 0.011042371 5719360 -0.13757342 0.03214062 0.98996997 0.0024311296
0.71815997 0.084478021 0.011782378 5390136 -0.11985982 0.052175578 0.99141884 0.0014777854
0.72590238 0.084501281 0.012737244 5455415 -0.13758391 0.047907334 0.98933089 0.0015398095
0.73316002 0.085670441 0.012728319 5390134 -0.1265675 0.043203764 0.99101675 0.0020231076
0.74313039 0.085179083 0.015411844 5192501 -0.13587442 0.051284499 0.98939776 0.0018696539
0.70714444 0.093445249 0.010876775 6377034 -0.11212832 0.0041148667 0.99368525 0.0022983486
0.71691531 0.094537698 0.011938319 5851968 -0.1076363 0.027225921 0.99381745 0.0023463219
0.72312546 0.093638547 0.01085107 6047810 -0.13126351 0.043799538 0.99037951 0.0012904492
0.73326308 0.095598787 0.013026163 5982786 -0.12633692 0.04247582 0.99107766 0.0022266598
0.74494177 0.094130449 0.015101503 5850945 -0.12667574 0.043560129 0.99098724 0.0021552648
0.75204986 0.09358605 0.018495768 6112580 -0.13197874 0.036931839 0.99056429 0.0018191471
0.76176369 0.09707807 0.015630424 5983298 -0.12763992 0.07638187 0.98887509 0.003173003
0.69369495 0.10332158 0.010646194 6968660 -0.11624672 -0.0092676673 0.99317712 0.0014451974
0.70649916 0.10616935 0.01066637 6772048 -0.1095554 0.01949569 0.99378949 0.0024929745
0.7155481 0.10338154 0.011428356 6508620 -0.12877037 0.019397715 0.9914847 0.0012188065
0.72529054 0.10431629 0.010757297 6573898 -0.12707439 0.037774723 0.99117362 0.0014629003
0.73395151 0.10494899 0.01307113 6443082 -0.12341968 0.039941002 0.99155039 0.002352061
0.74400878 0.10454135 0.015659764 6442826 -0.13169783 0.042860989 0.99036288 0.0021432864
0.75283575 0.10332506 0.018444687 6639695 -0.11358569 0.052525349 0.9921388 0.0016088494
0.76584673 0.1033841 0.016371733 6574412 -0.11823235 0.071764179 0.99038929 0.0025416648
0.77451801 0.10358134 0.018136501 6640719 -0.11863525 0.073410861 0.99022049 0.0032184795
0.78508741 0.10627525 0.018912703 7100242 -0.10800771 0.061411958 0.99225146 0.0023855546
0.69166243 0.11186709 0.011766404 7362646 -0.13058966 -0.012885492 0.9913528 0.0025403472
0.70777982 0.11180003 0.01108551 7231317 -0.096463405 -0.020311506 0.99512929 0.0020597365
0.72446042 0.11461671 0.010821571 6640204 -0.11444097 0.020476373 0.99321902 0.0023786151
0.73594457 0.11454227 0.012684514 6640202 -0.12013298 0.035613514 0.99211884 0.002364136
0.74587417 0.11401524 0.015232588 6705997 -0.11805946 0.051627479 0.99166352 0.0022418278
0.75835782 0.11401013 0.016531676 6902608 -0.11760461 0.048003722 0.99189961 0.0024769674
0.76577848 0.11352448 0.014825284 6706510 -0.11932661 0.071197286 0.99029905 0.0036477696
0.775289 0.11226735 0.017668998 6969426 -0.11986417 0.064050302 0.990722 0.0028228175
0.7869994 0.11503217 0.018057832 7165779 -0.10762096 0.052435994 0.99280816 0.0033223431
0.79991925 0.11844391 0.019553304 6903632 -0.092163749 0.05781756 0.99406391 0.0058038384
0.80159825 0.11217466 0.01932618 7428950 -0.099266887 0.063674271 0.99302149 0.0019285831
0.81817973 0.11817263 0.019968629 7558996 -0.073091365 0.035063285 0.99670869 0.0022093826
0.70757526 0.12391337 0.011493057 6902088 -0.080957271 0.025591828 0.99638897 0.002529972
0.71985483 0.12929812 0.012841314 6901833 -0.090548016 0.0091638109 0.99584997 0.0021809796
0.72418427 0.12474658 0.011162858 6705220 -0.10505447 0.015021913 0.994353 0.0029408478
0.7361986 0.12574576 0.013007303 6639426 -0.10991976 0.032229148 0.99341774 0.0023370774
0.74462324 0.12308799 0.012895495 6574149 -0.10691655 0.036995683 0.99357945 0.0027532578
0.75419241 0.12373108 0.014378842 6574147 -0.10129378 0.040764529 0.994021 0.0027039722
0.76552761 0.12368024 0.013858646 6573632 -0.13040474 0.046281852 0.99038005 0.0019297811
0.77445841 0.12292361 0.015979493 6705735 -0.11101297 0.055600163 0.99226242 0.0032854592
0.78790992 0.12483579 0.017557308 6771268 -0.10897799 0.048109464 0.99287933 0.0040668789
0.80720234 0.12359887 0.017350227 6967878 -0.087289929 0.0513965 0.99485618 0.0019357776
0.82318759 0.12744755 0.019257158 7034190 -0.088493571 -0.0021107432 0.9960745 0.0031061303
0.70671499 0.13523042 0.011713214 6837323 -0.1025396 -0.024246337 0.99443334 0.0031952369
0.72550696 0.1361901 0.011098226 6836806 -0.09370666 -0.0092179999 0.99555713 0.0027354155
0.73741895 0.13388704 0.012800291 6705477 -0.099513769 0.019729381 0.99484056 0.002152896
0.74534231 0.13387734 0.012619078 6902084 -0.11546455 0.029418888 0.99287587 0.0022706087
0.75240374 0.13471879 0.013861492 6705475 -0.095195152 0.015406183 0.99533945 0.0024097366
0.76538903 0.13494739 0.015665371 6836291 -0.12519869 0.024552928 0.99182779 0.0018750202
0.77288419 0.13268492 0.01658155 6705732 -0.10693464 0.014105156 0.99416596 0.0026332608
0.78469592 0.13418196 0.017514959 6705989 -0.113351 0.042447053 0.99264789 0.0046947789
0.79020637 0.13274974 0.018406898 6902599 -0.089778312 0.036114443 0.99530679 0.0027883025
0.81031966 0.1311591 0.016301513 7164740 -0.09496507 0.032149449 0.99496132 0.0022633385
0.70915103 0.14255956 0.011302799 7099467 -0.08366394 0.012517966 0.99641538 0.002413268
0.72348756 0.14524435 0.011820048 6902857 -0.088449374 -0.031893641 0.99556994 0.0033875017
0.73775554 0.14300543 0.012957186 6837064 -0.078317754 -0.019932609 0.9967292 0.0020282099
0.7450332 0.14342152 0.013133317 7099204 -0.1102156 -0.0025860269 0.99390435 0.0027002129
0.75389165 0.14429069 0.013931945 6705731 -0.10068393 0.00051471422 0.99491835 0.0015673907
0.76452148 0.1438875 0.014972657 6902085 -0.11179054 0.017079627 0.99358499 0.0017524431
0.77184737 0.14507338 0.017206296 6837063 -0.081726961 0.013618471 0.99656171 0.002466274
0.78510499 0.14383432 0.016039699 6837574 -0.11504816 0.01577273 0.99323469 0.0021866672
0.79326135 0.14266095 0.017150581 7033671 -0.092540368 0.030612446 0.99523824 0.0027678995
0.80799681 0.14104328 0.017731458 7230537 -0.095750347 0.01709697 0.99525851 0.0021940123
0.70901418 0.15315922 0.012070904 7099724 -0.10925791 -0.0054942272 0.99399823 0.0031367261
0.71318114 0.1583257 0.012817234 6837833 -0.13257025 -0.028585926 0.99076128 0.0040890411
0.72326148 0.15178864 0.011992782 7165005 -0.099932455 0.00063465169 0.99499404 0.0016188972
0.73284382 0.15060672 0.014511913 7296075 -0.093089104 -0.0099990163 0.99560761 0.0013214429
