# .PCD v0.7 - Point Cloud Data file format
VERSION 0.7
FIELDS x y z rgb normal_x normal_y normal_z curvature
SIZE 4 4 4 4 4 4 4 4
TYPE F F F U F F F F
COUNT 1 1 1 1 1 1 1 1
WIDTH 536
HEIGHT 1
VIEWPOINT 0 0 0 1 0 0 0
POINTS 536
DATA ascii
2.5447223 -0.79244924 0.42367116 14207440 -0.99661857 -0.07177332 0.040000707 0.031483974
2.5163579 -0.78413796 0.42297959 14207954 -0.92532414 -0.27746698 -0.25843242 0.05552616
2.5048273 -0.77700204 0.42286769 13155779 -0.99426556 -0.058002129 -0.089843079 0.030340811
2.5153728 -0.77925634 0.42380401 14405333 -0.99924874 -0.032478284 -0.021144828 0.034121573
2.5454578 -0.77374202 0.42456284 14141647 -0.99637979 -0.08498022 0.0023853183 0.065006375
2.5168657 -0.76527905 0.42371333 14404819 -0.96380937 -0.2045275 -0.17099725 0.066492416
2.4978712 -0.75493288 0.42343056 14405333 -0.99952388 -0.030511063 -0.0045975968 0.034927066
2.5043058 -0.75826722 0.42303747 13089988 -0.99859732 -0.050312269 -0.016497321 0.025611477
2.5357277 -0.75147563 0.42479211 14404819 -0.97625351 -0.13778368 -0.16716707 0.069125198
2.5461931 -0.75503486 0.42545447 14273233 -0.9950037 -0.013433183 -0.098930299 0.067859307
2.4983871 -0.73578781 0.4237228 14602198 -0.99870729 -0.023968151 -0.044825882 0.041052386
2.5037844 -0.73953241 0.42320725 13089986 -0.99852377 -0.053888854 -0.0068039745 0.025947956
2.5469286 -0.73632765 0.42634609 14142161 -0.99066907 -0.018097736 -0.13508236 0.061538436
2.5032628 -0.7207976 0.42337707 13221831 -0.99968916 -0.01957179 0.015445397 0.022468798
2.5178812 -0.7275613 0.42518079 14536405 -0.99921846 -0.039261751 -0.0045778155 0.035089228
2.4989035 -0.71664268 0.42401502 14536919 -0.99696583 0.045852304 -0.062903032 0.043382384
2.5476639 -0.71762043 0.42723772 14273233 -0.99384481 -0.094158955 -0.058365971 0.060928944
2.5027413 -0.70206279 0.42354682 13221832 -0.99609572 -0.025948334 -0.084380798 0.031383425
2.518389 -0.70870239 0.42591459 14470612 -0.99910569 -0.02656932 0.032893334 0.026218923
2.4813869 -0.69286758 0.42363316 14536919 -0.99962848 -0.00063291588 -0.027248599 0.047159031
2.5306773 -0.69444352 0.42826834 14207954 -0.98496944 -0.093266211 -0.14538443 0.034673054
2.5022199 -0.68332785 0.42371663 13221831 -0.96592677 0.044996161 -0.25487435 0.02847898
2.5188966 -0.68984348 0.42664832 14602198 -0.99905783 -0.038197566 0.020603672 0.026186183
2.4999363 -0.67835253 0.42459947 14602712 -0.99977255 -0.019241881 0.0092039481 0.031486958
2.5194044 -0.67098457 0.42738205 14536405 -0.99468911 -0.025330031 0.099760078 0.019165635
2.5314076 -0.67586565 0.42915383 14142161 -0.97285438 -0.10499667 -0.2062283 0.028570529
2.5016983 -0.66459304 0.42388642 13155781 -0.95394945 0.035355605 -0.29787669 0.050363403
2.5004528 -0.6592074 0.42489165 14668505 -0.99718809 0.073245689 0.015842251 0.032512181
2.519912 -0.65212566 0.42811584 14602198 -0.99730164 0.036162578 0.063888326 0.02685361
2.5010729 -0.64296031 0.42462003 14010834 -0.99613452 0.064022064 -0.060143024 0.051734716
2.5204198 -0.63326675 0.42884958 14668507 -0.99066377 0.094924435 0.097850032 0.046802897
2.5010703 -0.62402028 0.42485106 14208213 -0.9911328 0.085180581 -0.10198099 0.041802447
2.502547 -0.61031121 0.42920095 14536921 -0.99870622 0.050852209 6.9528818e-05 0.06558574
2.5010676 -0.60508037 0.42508203 13879761 -0.99914837 -0.013520853 -0.038984474 0.04121815
2.4996123 -0.58965373 0.42456558 13352905 -0.9970628 -0.074961163 0.015702255 0.012325811
2.5025179 -0.582627 0.42606056 14734811 -0.99919564 -0.023167947 -0.032732371 0.033281889
2.5196493 -0.58997035 0.42144024 14536921 -0.98273212 0.1057926 -0.15180726 0.067949064
2.4990909 -0.57091892 0.42473537 13484491 -0.99670202 -0.029147016 0.075733855 0.0008641936
2.5026193 -0.56521177 0.42330986 14602970 -0.99983662 0.01190888 0.013595752 0.026442405
2.4985695 -0.5521841 0.42490515 13418698 -0.99673218 -0.02823022 0.075683825 0.00086447247
2.5031745 -0.54606724 0.42355701 14602971 -0.99900258 0.0032985916 0.044530466 0.024682719
2.4980478 -0.53344917 0.42507493 13287112 -0.99799013 -0.059052534 0.022990812 0.011458189
2.5037298 -0.5269227 0.42380416 14537177 -0.99918956 -0.039455529 -0.0079664476 0.025957156
2.4975264 -0.51471436 0.42524472 13352905 -0.98742628 -0.1573427 0.015252903 0.031755872
2.522043 -0.51284605 0.42225426 14668507 -0.99342257 -0.07373333 -0.087607011 0.036815293
2.5045831 -0.50604659 0.4272294 14603227 -0.9929567 0.11831908 -0.0061408207 0.020520976
2.497005 -0.49597961 0.42541453 13287114 -0.98918092 -0.13205692 -0.063892275 0.034158651
2.5045815 -0.49036565 0.42107522 14471641 -0.99391389 -0.0070232893 -0.10993603 0.048711549
2.5050995 -0.48690155 0.42752162 14537434 -0.99805963 0.061587315 -0.0091679022 0.021124065
2.5152709 -0.48597929 0.42051646 14273749 -0.94636351 -0.28509527 -0.15204191 0.063190311
2.4791782 -0.47419205 0.42342499 13352905 -0.99962312 -0.027176321 -0.0038884953 0.038562045
2.5051756 -0.47122163 0.42127728 14602972 -0.97892529 0.12830405 -0.15888187 0.038744263
2.5056155 -0.46775645 0.42781383 14603227 -0.99990159 0.011707925 -0.0077280924 0.021485228
2.5159962 -0.46753064 0.42139575 14273749 -0.95856136 -0.18311048 -0.21824476 0.049907837
2.4786601 -0.45558664 0.42359361 13287112 -0.9987188 0.024498066 0.044280652 0.032850895
2.5057697 -0.45207766 0.42147934 14471386 -0.99302822 0.10899247 -0.044897184 0.032448728
2.5061319 -0.44861138 0.42810607 14537434 -0.99821198 -0.010459677 0.058851402 0.013532723
2.5167215 -0.44908202 0.4222751 14207956 -0.90084237 0.27134925 -0.3388992 0.045085076
2.4954405 -0.43977508 0.42592388 13287112 -0.99168742 0.11504266 0.057630833 0.025593044
2.5063639 -0.43293366 0.4216814 14537434 -0.9949525 0.086147778 0.05145999 0.012201728
2.5174468 -0.43063337 0.42315438 14273749 -0.91162497 0.2828694 -0.29820269 0.049606442
2.4949191 -0.42104018 0.42609367 13090248 -0.9932462 -0.083828218 0.080217533 0.031477183
2.5066483 -0.42946628 0.42839825 14537434 -0.99521846 0.025378812 0.094319649 0.00041405793
2.5070615 -0.41205543 0.42528698 14405849 -0.99611658 0.028032541 0.083462976 0.00041407408
2.5536892 -0.4172309 0.42369464 14142163 -0.97307462 0.081103988 -0.21574968 0.057999153
2.4771066 -0.39977056 0.42409948 12958149 -0.99434578 -0.092180431 0.052719682 0.031468075
2.5076165 -0.39291087 0.42553413 14339799 -0.99841279 0.024446135 0.050737031 0.0062377225
2.5366609 -0.39612991 0.4247497 14076370 -0.96164203 -0.23856404 -0.13539511 0.06600111
2.4765887 -0.38116518 0.4242681 13023683 -0.99327153 0.068237267 -0.09357024 0.064292818
2.5081716 -0.3737663 0.42578125 14142676 -0.99994147 0.0075335642 -0.0077671423 0.017093213
2.5196226 -0.37528747 0.42579231 13879504 -0.9733426 -0.083662868 -0.21355253 0.076611876
2.4933546 -0.36483574 0.42660305 13024195 -0.99230707 0.10761597 -0.061201215 0.062446285
2.523746 -0.36842126 0.42064303 14076370 -0.99757171 -0.064243935 -0.02689779 0.043516863
2.5087271 -0.35462177 0.4260284 13945297 -0.99966371 0.0088876635 -0.024360524 0.018671803
2.5203478 -0.35683888 0.42667165 13550026 -0.96549582 0.0077011385 -0.26030478 0.082105942
2.5058489 -0.34738958 0.42105401 14010577 -0.99972045 0.0036469537 -0.0233627 0.048627194
2.5111301 -0.34837359 0.42906782 12630464 -0.99208367 0.090248175 -0.087322742 0.052349754
2.5092821 -0.3354772 0.42627552 13945041 -0.99873841 0.036386918 -0.034605715 0.018955888
2.5229173 -0.33454683 0.42483073 13747405 -0.98099834 0.057772972 -0.18521473 0.052476995
2.4923115 -0.32736605 0.42694262 12827074 -0.99902862 -0.042920757 0.0099841142 0.025325797
2.5099287 -0.31806964 0.42289376 13945295 -0.98972005 0.032416224 -0.13929611 0.025292387
2.5235338 -0.31589305 0.42563725 13813198 -0.99104255 0.0013187553 -0.13353969 0.05507233
2.4917901 -0.30863121 0.42711243 12694975 -0.99727035 -0.066273853 -0.032553311 0.021878904
2.5225236 -0.30149296 0.42930958 13550026 -0.98808056 -0.14318663 -0.056519423 0.052370731
2.5073612 -0.29122382 0.42323929 13813198 -0.99795473 -0.02584086 -0.058470204 0.039476685
2.5105228 -0.29892564 0.42309585 13748175 -0.9847821 0.027071534 -0.17167249 0.026021192
2.4912686 -0.2898964 0.42728218 12760511 -0.99761921 -0.060257748 -0.033540554 0.022277862
2.490747 -0.27116156 0.427452 12695739 -0.99461025 -0.089397363 -0.052522808 0.024501218
2.5078652 -0.27250195 0.42396772 13747405 -0.99211073 -0.085948169 -0.09126468 0.022807723
2.511117 -0.27978164 0.42329791 13748176 -0.99050015 0.0089670531 -0.13721873 0.026554532
2.5117111 -0.26063761 0.42349997 13813198 -0.9825983 -0.058340494 -0.17634358 0.028912069
2.4902256 -0.25242671 0.42762178 12694977 -0.99975008 0.018057453 0.013183817 0.014913145
2.5083692 -0.25378001 0.42469615 13681612 -0.99644512 0.020628698 -0.081679925 0.02453335
2.5123053 -0.24149363 0.42370203 13813199 -0.97730571 -0.12073061 -0.17406237 0.029235229
2.5088732 -0.2350581 0.42542452 13681612 -0.99539316 0.055592567 -0.078114584 0.023918003
2.4947798 -0.2210692 0.4225013 13682125 -0.98285735 -0.12481273 -0.13569559 0.042105809
2.5093772 -0.21633619 0.42615294 13615819 -0.99802494 0.06175692 -0.011505321 0.032688007
2.4953697 -0.20206229 0.4227019 13419210 -0.99179494 -0.12124634 0.040523693 0.056964941
2.5098813 -0.19761428 0.42688137 13484233 -0.99065882 0.13478692 -0.020679981 0.034358513
2.4959595 -0.18305536 0.42290252 13286854 -0.9985112 0.053734846 0.0093807438 0.061545108
2.5103855 -0.17889237 0.4276098 13417671 -0.98292094 0.17930387 -0.041432086 0.031464621
2.5146821 -0.16491762 0.4245103 13352645 -0.99840587 0.03595433 0.043509346 0.059379287
2.5293312 -0.16097336 0.42871428 13417671 -0.99753803 0.028719719 -0.063977562 0.043364137
2.4971395 -0.14504148 0.42330375 13221061 -0.99064487 -0.062219664 -0.12145571 0.057292886
2.5298388 -0.14211445 0.42944801 13221061 -0.99719745 -0.033875849 -0.066706084 0.041383926
2.4977293 -0.12603454 0.42350438 13286085 -0.97731149 -0.16540815 -0.13229686 0.14183691
2.5118976 -0.12272662 0.42979506 13089475 -0.99982375 0.014666438 0.011721493 0.054691873
2.5063136 -0.11549971 0.4207336 12957120 -0.96925753 -0.17944661 -0.16834164 0.032181226
2.4860537 -0.10254807 0.42898008 3220783 -0.95827234 0.17062823 -0.22934729 0.054277577
2.5070338 -0.097180359 0.42160675 12891327 -0.99068618 -0.052512757 -0.12563172 0.032867189
2.4855323 -0.083813228 0.4291499 2497324 -0.95825893 0.17067195 -0.22937095 0.054000568
2.5077538 -0.078860998 0.4224799 12825021 -0.99508923 -0.026591135 -0.095343508 0.031166727
2.4850106 -0.065078415 0.42931968 1641743 -0.93828005 0.24105069 -0.24804287 0.052770827
2.5084741 -0.060541652 0.42335305 12759228 -0.97648793 -0.08477708 -0.19820233 0.039138936
2.4913738 -0.0422922 0.42439571 12496056 -0.98123717 -0.032804918 -0.18999365 0.044575758
2.492089 -0.024102116 0.42526272 12430775 -0.99172568 0.0062391888 -0.12822324 0.046308793
2.4928041 -0.0059120376 0.42612967 12364982 -0.99256152 0.072317429 -0.097938091 0.04720455
2.4935191 0.012278041 0.42699668 12299189 -0.98234063 0.17618631 -0.062970996 0.050397415
2.5120749 0.031055128 0.42771885 12233139 -0.99649853 0.057937849 -0.060281694 0.044413082
2.4949493 0.0486582 0.42873064 12232369 -0.99862444 -0.037615731 -0.036527544 0.044390664
2.4956646 0.066848271 0.42959765 12166576 -0.99772614 -0.036012981 0.056970123 0.037605774
2.4972522 0.12028506 0.42061582 12363955 -0.99406677 0.1084762 0.0080128023 0.029288808
2.4977529 0.13887759 0.42133921 12298160 -0.99846518 -0.036489885 0.041663632 0.026763253
2.4982533 0.15747012 0.42206261 12035760 -0.99911326 0.031338505 0.028117552 0.034021161
2.498754 0.17606264 0.422786 11969712 -0.98594028 0.16524586 0.024812328 0.030462509
2.5167117 0.19636074 0.42383334 11969197 -0.98334485 -0.099203125 -0.15228839 0.063473113
2.5172157 0.21508268 0.42456174 11837609 -0.94020748 -0.22865495 -0.25244191 0.044544864
2.4827917 0.22987594 0.42462212 11706277 -0.96636301 -0.11898381 -0.22800285 0.063742511
2.4972322 0.24979396 0.42095044 11508644 -0.98673022 0.15229471 -0.056301031 0.065250456
2.5007563 0.25043285 0.42567953 11705766 -0.97221529 0.16937935 -0.16157998 0.068527326
2.4979475 0.267984 0.42181739 11311265 -0.9868567 0.11738911 -0.11105743 0.075780302
2.5012567 0.26902539 0.42640293 11574437 -0.93608356 0.34183857 -0.083030909 0.02698518
2.523948 0.27924204 0.4201442 11575207 -0.97063947 0.10568774 -0.21607688 0.05220459
2.5178835 0.28927436 0.42498916 11311777 -0.94813424 0.16296892 -0.27291492 0.044894449
2.5107071 0.29211801 0.42791793 920075 -0.99884856 0.0088114096 -0.047158573 0.0077901189
2.5244641 0.29838708 0.42043638 11443619 -0.98538524 0.012925296 -0.16984956 0.040229458
2.4993775 0.30436417 0.42355141 11179168 -0.95805198 -0.025816703 -0.28542933 0.058092248
2.5197361 0.30869225 0.42820385 11443105 -0.98254621 0.098664336 -0.15769719 0.027818153
2.5249805 0.31753221 0.42072862 11377828 -0.96464509 0.17706965 -0.19520825 0.043822337
2.5179753 0.3252171 0.4242492 11179422 -0.94911516 -0.2370096 -0.20738125 0.047171857
2.5202401 0.32741416 0.42893228 11376799 -0.99359739 -0.018023686 -0.11153201 0.020574884
2.5254967 0.33667734 0.42102084 11312035 -0.94630474 0.25858539 -0.19401264 0.03948313
2.5008078 0.34074432 0.42528537 11113629 -0.97937971 -0.18465869 -0.081954181 0.055171993
2.5207441 0.34613606 0.42966068 11245472 -0.99206591 -0.074896187 -0.10097445 0.016595012
2.5015228 0.3589344 0.42615238 11113886 -0.98730141 -0.14264315 -0.069920927 0.040620197
2.5260131 0.35582238 0.42131305 11443105 -0.96465093 0.15027732 -0.21648407 0.035948727
2.502238 0.37712449 0.42701933 10916507 -0.99961048 -0.014332731 -0.0239473 0.033497486
2.5265293 0.37496746 0.42160529 11377058 -0.99549574 -0.054952852 -0.077255718 0.045933947
2.5029531 0.39531457 0.42788634 10982300 -0.99780422 0.046417683 -0.047246128 0.030652341
2.526269 0.39401188 0.42161164 10589080 -0.98941249 -0.029581005 -0.14208426 0.041778866
2.5036683 0.4135046 0.42875335 10916250 -0.99868935 0.015135061 -0.048892923 0.030532012
2.5275621 0.41325763 0.42218971 11311265 -0.99374026 -0.039194297 -0.10461443 0.062535189
2.5043833 0.43169469 0.4296203 10916248 -0.99809736 -0.057135232 0.023180425 0.030575767
2.5463164 0.43586275 0.42314288 11114656 -0.97483277 -0.021851804 -0.22186399 0.062651262
2.5285947 0.45154786 0.42277414 10983070 -0.9599545 -0.030536689 -0.278487 0.054586925
2.5160162 0.46318042 0.42972347 11113888 -0.97194213 0.22457381 0.069965057 0.074044153
2.5291109 0.47069299 0.42306635 11179933 -0.93784833 -0.11382502 -0.3278482 0.04917318
2.5166061 0.48218739 0.42992407 10916509 -0.99946064 0.021677554 0.024670854 0.067622423
2.5262275 0.48973987 0.42277598 10390676 -0.95318645 0.17920083 -0.24356245 0.034152307
2.5118906 0.5049749 0.42298147 10982554 -0.93678135 0.15683289 -0.31280062 0.033939406
2.5222948 0.50878769 0.42236689 9930382 -0.98603427 0.11969596 -0.11579884 0.036366321
2.5217619 0.52793378 0.4225404 9799309 -0.98757505 0.0036153812 -0.15710676 0.030787256
2.5306599 0.52812833 0.42394301 10851484 -0.90855289 0.15170626 -0.3892518 0.040442847
2.521229 0.54707986 0.42271394 9667723 -0.96807808 -0.17408453 -0.18033141 0.034952819
2.5494363 0.55155581 0.42490876 10719896 -0.95056468 -0.044045322 -0.30738717 0.057649329
2.5206959 0.56622589 0.42288744 9601930 -0.98218167 -0.0606336 -0.17788416 0.038766291
2.5316925 0.56641847 0.42452744 10719380 -0.95643467 -0.072014891 -0.28292513 0.060226627
2.5230379 0.57161391 0.42005691 10456210 -0.99412912 -0.034007516 -0.10271714 0.019885266
2.5040507 0.58341706 0.42066216 9733517 -0.99408269 0.011336631 -0.10803293 0.029838834
2.513941 0.581007 0.42414197 10522003 -0.95644712 -0.072273783 -0.2828168 0.059635468
2.5052361 0.59645033 0.42010632 10126730 -0.99906808 0.039800324 0.016700923 0.025891474
2.5065384 0.60450011 0.42120582 10192527 -0.99458688 0.031024776 -0.099168777 0.022449272
2.5196302 0.60451812 0.42323449 9404297 -0.99301487 0.11785986 -0.0055308794 0.055027001
2.5327251 0.60470867 0.42511189 10455956 -0.95978189 -0.037997607 -0.27816346 0.051010091
2.5059514 0.61464036 0.42097327 9995146 -0.9908579 -0.13055637 0.033995658 0.020572685
2.4897919 0.62824881 0.42201677 9863562 -0.99390811 -0.10308792 0.038981885 0.023490703
2.5070388 0.62309265 0.42192921 10257807 -0.99374551 0.058635231 -0.095035739 0.019381056
2.5352151 0.62611878 0.42551684 9799051 -0.98775518 0.082821004 -0.13221338 0.046647888
2.5154788 0.63803107 0.42501235 10193556 -0.95485568 0.085821189 -0.2844035 0.045229476
2.4905021 0.64631724 0.422878 9863562 -0.99446207 -0.075274043 0.073341854 0.027870741
2.5185642 0.64281029 0.42358151 9207686 -0.9994204 -0.018936891 -0.028288662 0.048517868
2.5250542 0.64650154 0.42297059 10126480 -0.99669486 -0.025724139 -0.07705617 0.026070302
2.4912124 0.66438562 0.42373917 9666183 -0.99639601 0.020527426 0.082302019 0.026047206
2.50804 0.66027778 0.42337599 10126732 -0.9965499 -0.044918954 -0.069789737 0.022230847
2.5180314 0.66195643 0.42375502 8944514 -0.97982532 -0.14341499 -0.13919261 0.036476087
2.5342741 0.66214395 0.42598853 10324370 -0.93338585 0.095071629 -0.34605253 0.04709946
2.5085406 0.67887032 0.42409939 9995146 -0.99559271 -0.083540834 -0.042615712 0.025183292
2.4919229 0.68245405 0.42460033 9731976 -0.99196142 0.040408134 0.11991563 0.027047513
2.5174985 0.68110251 0.42392856 8944768 -0.97929198 0.032062612 -0.19989829 0.025056796
2.5347905 0.68128902 0.42628074 10192784 -0.8869524 0.20301108 -0.41485167 0.028295809
2.5090411 0.69746286 0.42482275 9863819 -0.99582219 -0.085225232 -0.032784089 0.031522881
2.4926331 0.70052242 0.42546156 9600388 -0.99371737 -0.071846984 0.085812919 0.036167935
2.5169654 0.70024854 0.42410207 9009791 -0.97562563 0.12258306 -0.18201137 0.019573489
2.5353067 0.70043415 0.42657298 10061198 -0.89592046 0.095806301 -0.43376011 0.027473848
2.4933434 0.71859086 0.42632273 9469315 -0.99324292 -0.027373319 0.11277974 0.037553363
2.5095417 0.71605539 0.42554614 9601417 -0.98864651 -0.13459301 -0.066804841 0.037410419
2.5345051 0.72479957 0.42650345 8812928 -0.97503972 0.20504378 -0.08517389 0.016243463
2.5541165 0.72509527 0.42755753 9995405 -0.8894524 0.025653489 -0.45630738 0.031564638
2.4940538 0.73665923 0.42718396 9534597 -0.98541266 0.16667643 -0.034365833 0.069199033
2.5100422 0.73464793 0.42626953 9601417 -0.96815264 -0.21865222 -0.12194955 0.029102335
2.5363393 0.73872435 0.4271574 9864073 -0.89627177 0.066156998 -0.4385432 0.028894335
2.5339684 0.74408275 0.42667821 8812414 -0.99575949 0.081429452 -0.042806722 0.03191644
2.4947641 0.75472766 0.42804512 9468804 -0.98833209 0.15127754 0.017743349 0.037964541
2.5105429 0.75324041 0.42699292 9469831 -0.99009997 0.038936179 -0.13485551 0.03274025
2.5368557 0.75786948 0.42744961 9864073 -0.92000151 0.14175883 -0.36537892 0.037311524
2.4935043 0.76611096 0.42736307 9600647 -0.97624701 0.12288359 -0.17844158 0.024869563
2.5334315 0.76336592 0.42685297 8747135 -0.99753731 -0.048690923 0.050483145 0.011727741
2.5123873 0.77835107 0.42877617 9271936 -0.98410004 -0.090777494 -0.15266494 0.033203397
2.5373719 0.77701449 0.42774183 9666694 -0.93703842 0.14749281 -0.3165516 0.041244473
2.5328948 0.7826491 0.42702773 8549756 -0.99882704 -0.048379786 -0.0020007717 0.020560481
2.4961848 0.79086441 0.42976752 9009278 -0.98773175 -0.12162709 -0.097943723 0.044416696
2.511544 0.79042548 0.42843968 9338245 -0.99213904 0.081051759 -0.095345095 0.051972292
2.5120444 0.80901802 0.42916307 9337729 -0.99516004 0.098258257 0.0013504328 0.044900674
2.5323582 0.80193228 0.42720249 8352890 -0.99982256 0.016072432 -0.0098273838 0.019309571
2.5561965 0.80222404 0.42873478 9666694 -0.95073754 0.034012623 -0.30812544 0.039440822
2.5125451 0.82761055 0.42988646 9271936 -0.99717593 -0.0271772 0.070011266 0.031453803
2.5318213 0.82121545 0.42737725 8418170 -0.99967599 0.018146878 0.017852001 0.010793611
2.5567164 0.8215062 0.42902905 9535108 -0.93550366 -0.057942532 -0.34853357 0.042315625
2.5389209 0.83444983 0.42861849 9272963 -0.88560462 -0.21552117 -0.41140628 0.039898187
2.5312846 0.84049863 0.42755201 8220791 -0.99674684 -0.02885884 0.075251929 0
2.5350926 0.85668832 0.42831874 8680827 -0.95837784 -0.20578861 -0.19789633 0.022603545
2.5216303 0.86612725 0.42849386 9337729 -0.94043392 -0.068085141 -0.33308932 0.044542998
2.5302112 0.87906486 0.42790154 8220791 -0.99514407 -0.077034071 -0.061269633 0.026259659
2.5221429 0.88513529 0.42878395 9205889 -0.96031284 0.041255914 -0.27585736 0.040587708
1.6676782 0.89935607 0.42579246 4266768 -0.79260027 -0.59894073 0.11425775 0.027672956
1.6850609 0.89598471 0.42885295 5319706 -0.4942362 -0.86889875 -0.027307183 0.05875976
1.8445014 0.89917034 0.4292503 6305822 0.20846054 -0.95830828 -0.19542138 0.013506513
2.5296743 0.89834803 0.4280763 8154230 -0.99531478 -0.025564047 -0.093247361 0.023767948
1.7265007 0.90603518 0.42342177 5582880 0.18621309 -0.98138964 0.046894159 0.0063633919
1.7378758 0.90525472 0.42872429 6173987 0.11678855 -0.99188733 0.050198995 0.005082102
1.7539082 0.90731657 0.42813754 5911330 0.15199484 -0.98720902 0.048124105 0.0059851226
1.7784466 0.90976745 0.42755055 6502948 0.17827363 -0.98320591 -0.039048322 0.0083514731
1.8830795 0.90573162 0.42665833 5977889 0.11873433 -0.97359151 -0.19499159 0.025397284
1.9203895 0.90853286 0.42782 6175015 -0.081301548 -0.99626672 0.029030165 0.012978113
1.998637 0.90112722 0.42493963 6176052 -0.12916195 -0.98804414 -0.084178209 0.04735199
2.0514929 0.90966463 0.4286896 7690330 -0.11423499 -0.99238491 -0.046071164 0.0079935845
1.6673236 0.91209733 0.42590794 3281164 -0.84969318 -0.51843446 0.096162461 0.031964373
1.7630907 0.91410923 0.42701736 6239776 0.11110753 -0.99278855 0.045012563 0.010848742
1.7983201 0.9177928 0.42236683 6173983 -0.016551292 -0.99974793 0.015170507 0.011575047
1.8187293 0.9144702 0.42566934 6043682 -0.08811494 -0.99514991 0.043730836 0.01033949
1.8381454 0.91032982 0.42879781 6306343 0.020879367 -0.99944246 0.026055779 0.010359352
1.8451194 0.91818321 0.42221963 6831656 7.6640863e-05 -0.99551207 0.094634496 0.010640275
1.8559482 0.91544992 0.42075175 6765863 0.036028031 -0.99934989 0.0013346598 0.0043989304
1.8660061 0.91601253 0.42445135 6634535 0.052721895 -0.99849188 0.015309511 0.008017539
1.8746409 0.9178406 0.42491269 6371877 0.055040356 -0.99847192 0.0049397773 0.012256371
1.8862551 0.91707736 0.42201769 6700327 0.079664029 -0.99665195 0.018404286 0.0041498467
1.8952296 0.91726601 0.42547649 6175012 0.04605386 -0.99890864 -0.007784246 0.0065678833
1.9099674 0.91821313 0.42631742 6109222 -0.066477515 -0.9976325 0.017613247 0.015426654
1.9170617 0.91719854 0.4230898 6568743 0.088507682 -0.99565583 -0.028909979 0.0039468119
1.9216449 0.91174495 0.42405468 6240550 0.084982947 -0.99571466 -0.036472935 0.038725842
1.9488767 0.91997004 0.42462695 6634788 0.03205936 -0.99945778 -0.0075116362 0.007196004
1.9623567 0.91827279 0.42131019 6043678 0.059000529 -0.98582298 0.15707326 0.021751281
1.9862444 0.9154712 0.42642865 6043179 -0.18339702 -0.97994107 -0.077980883 0.033209518
2.0059919 0.91680455 0.42819101 6568750 -0.23807263 -0.9710809 -0.017979568 0.024991784
2.0116963 0.91591614 0.4239949 6963000 -0.31125697 -0.92340225 -0.2246049 0.044809408
2.0273871 0.91354561 0.42775595 7029561 -0.16763289 -0.98571432 -0.01632566 0.0084788613
2.0324388 0.91190147 0.42781913 6635324 -0.42657214 -0.89814311 -0.10665419 0.043435939
2.5291376 0.91763121 0.42825106 8088437 -0.99562216 0.0045979219 -0.093355969 0.023033412
2.5409861 0.91103023 0.42978734 9074303 -0.94161397 0.20720468 -0.26538548 0.051624864
1.6589609 0.9202463 0.42452714 3215367 -0.82972568 -0.55727041 0.031703461 0.039700717
1.8524222 0.92257059 0.42860195 6765863 0.055019688 -0.99801105 -0.030770825 0.010468666
1.9014549 0.92053735 0.42889166 6306341 0.043816585 -0.99833357 0.037551291 0.0026271932
1.9321764 0.92208838 0.42918253 6437674 -0.0076786317 -0.99995708 -0.0051904805 0.0091514271
1.9573171 0.92216241 0.42163578 6502689 0.010834474 -0.99896616 0.044150714 0.009521638
1.9639217 0.92369419 0.42948321 6568481 -0.054060344 -0.99703676 -0.054728851 0.011587577
1.9859004 0.92283642 0.42326272 5976863 -0.11532776 -0.99272013 0.034731779 0.0089998133
2.0008869 0.92557985 0.42306414 6174504 -0.23230745 -0.9548437 -0.18522128 0.04908875
1.619823 0.93492329 0.42992258 5451042 -0.22805876 -0.95313865 -0.19878599 0.037138857
1.6422457 0.93617868 0.42176229 5449235 -0.40346962 -0.87276983 -0.27474558 0.033870429
1.658608 0.9329266 0.42464206 4003846 -0.67691362 -0.73530799 -0.033319477 0.050096802
2.5286009 0.93691438 0.42842582 7956851 -0.99643826 -0.043776184 -0.072072327 0.034632489
2.5236807 0.94215941 0.42965436 8680315 -0.88354307 -0.33967721 -0.3224456 0.064519875
1.6041257 0.95050913 0.42722246 5845271 -0.18621626 -0.96548373 -0.18211177 0.038776975
2.4970317 0.95451796 0.42031702 8415862 -0.99740344 0.052888963 -0.048878971 0.058537237
2.528064 0.95619756 0.42860058 7694447 -0.98215103 -0.17750983 -0.06220676 0.034624126
2.5241933 0.96116745 0.42994446 8614269 -0.87093991 -0.24842137 -0.42396995 0.054743532
2.4977422 0.97258651 0.42117819 8350069 -0.99145055 0.021103406 -0.12876536 0.050144933
2.5275273 0.97548074 0.42877534 7759726 -0.97651333 -0.2042387 -0.068617463 0.043563366
2.5089715 0.98743981 0.42670479 7693933 -0.97364706 -0.19678363 -0.11527237 0.044076469
2.4984524 0.99065483 0.42203942 8284530 -0.97939956 0.079840548 -0.18547773 0.073555775
2.5161006 1.015867 0.42273 8087408 -0.99935555 0.012414609 0.033680651 0.075491555
2.5264537 1.0140471 0.42912486 7431275 -0.97439736 -0.11819967 -0.19125567 0.037017532
2.4998732 1.0267916 0.42376181 8087408 -0.98317134 -0.012407759 0.18226407 0.053424519
2.5079055 1.0257319 0.42705184 7365482 -0.9790827 -0.026634607 -0.20171224 0.026859865
2.503978 1.0448691 0.42592418 7627369 -0.99969602 0.024643349 -0.00084200932 0.04452686
2.514823 1.0515302 0.420349 8087151 -0.98420745 0.16817404 -0.055255488 0.068059802
2.4977548 1.0623252 0.42076537 7955822 -0.98065835 0.19349505 -0.029478688 0.068971463
2.5040667 1.0634763 0.42644152 7627370 -0.99280244 0.11976202 -0.00048163088 0.044524536
2.4806795 1.0728613 0.42117167 7823975 -0.98708189 0.15521263 -0.039728999 0.072218671
2.518961 1.0886273 0.42619798 7627627 -0.96650559 0.14659685 0.21065688 0.048259556
2.5243068 1.0911798 0.42982388 7167074 -0.97311485 0.11310677 -0.20063509 0.056252182
2.5180006 1.1070626 0.42479205 7561573 -0.995489 0.075238012 0.057800781 0.060102791
2.5237701 1.1104631 0.42999864 7035742 -0.98465121 0.067391172 -0.16099861 0.048249841
2.5274925 -1.3420018 0.43910724 11048077 -0.975025 -0.071069874 -0.21041729 0.049675617
2.4847019 -1.3104805 0.43402237 11179921 -0.92823982 0.37132341 0.022130162 0.063387282
2.4996212 -1.3193468 0.43363693 11113615 -0.96611452 -0.19269225 -0.17173374 0.054876436
2.5097055 -1.3138289 0.43939275 11310226 -0.99782896 -0.036907386 -0.054545376 0.061633546
2.4625309 -1.3047073 0.43003196 11048083 -0.8288886 0.55941111 -0.0017147139 0.083096556
2.4989033 -1.3036164 0.43314973 11245205 -0.86759651 0.49654379 0.026843704 0.10516904
2.5179799 -1.3096489 0.4344202 11113870 -0.97393847 -0.10465433 -0.20122465 0.071843192
2.4852183 -1.2913353 0.43431461 11376787 -0.9604575 0.27796507 -0.016025238 0.067172699
2.5183914 -1.2936463 0.43489438 11245714 -0.97685158 0.19435675 0.089367203 0.12667821
2.4858966 -1.2842069 0.43232891 9996424 -0.9435423 -0.31850252 -0.091017202 0.076612577
2.5023706 -1.2816923 0.43537509 11310736 -0.94899315 0.23027769 -0.2153697 0.043412164
2.5189943 -1.2742206 0.43509942 11442582 -0.99736023 0.0044712434 -0.072474949 0.055537954
2.4853823 -1.265731 0.43249634 10259080 -0.96789962 -0.24094978 -0.071509831 0.078295007
2.5029931 -1.2628268 0.43596187 11442321 -0.96163166 0.13318603 -0.23984572 0.051316977
2.5195973 -1.254795 0.43530446 11574168 -0.98256546 -0.1430998 -0.11869122 0.042026047
2.5236487 -1.2513118 0.43673694 11836568 -0.9631893 0.2395325 -0.12202682 0.060454883
2.5025222 -1.2455523 0.43715414 11377040 -0.93449229 0.10503738 -0.34013423 0.033853274
2.4668911 -1.2204173 0.43059087 10522252 -0.93445301 0.26041234 -0.24286425 0.068605497
2.503258 -1.2255613 0.43607828 11902619 -0.97652936 0.076210067 -0.20145075 0.064547896
2.4838395 -1.2103033 0.43299869 10589075 -0.85864311 0.48538709 -0.16471635 0.043645862
2.5231643 -1.2146087 0.43808877 11968670 -0.96925759 0.10974751 -0.22021645 0.062926345
2.5018952 -1.207211 0.43416727 12034467 -0.97393328 -0.014746863 -0.22635478 0.051585864
2.4833252 -1.1918273 0.43316612 11047834 -0.89740014 0.39406958 -0.19844946 0.028439591
2.5237913 -1.1956062 0.43867978 12166048 -0.94571924 0.19163901 -0.26246837 0.08486513
2.5013785 -1.1846274 0.43497407 11444896 -0.98516923 0.14410095 -0.093147531 0.032452047
2.4997454 -1.1627195 0.43574595 6378839 -0.94389504 0.28715548 -0.16310722 0.037622154
2.504941 -1.1669455 0.43584737 11381163 -0.98981911 -0.019951792 -0.14092536 0.06354183
2.5262682 -1.1541774 0.43821955 11702654 -0.91894829 -0.026540237 -0.39348403 0.031964425
2.4992275 -1.1441141 0.43591458 11771796 -0.96529567 0.14147621 -0.21951953 0.049138032
2.5036905 -1.1493678 0.4347778 13279653 -0.99797094 0.033166118 -0.054351397 0.048291381
2.5042889 -1.1300868 0.43498129 12693168 -0.9848972 0.11465178 -0.12973991 0.031864159
2.516151 -1.1330937 0.43833059 11444383 -0.95847434 0.13869038 -0.24918252 0.050206501
2.5267923 -1.1347506 0.43851605 13021876 -0.92646039 -0.016898431 -0.3760128 0.03336418
2.5048873 -1.1108057 0.43518484 12825009 -0.99092424 0.06516844 -0.1175679 0.03148121
2.5156293 -1.1143589 0.43850037 11837602 -0.96734893 0.090202004 -0.23685366 0.050264001
2.5273161 -1.1153237 0.43881258 13087668 -0.96621788 -0.20559072 -0.15542032 0.02981253
2.5486474 -1.1017559 0.43048525 13021876 -0.9745633 0.17348686 -0.14187601 0.045106575
2.5054855 -1.0915247 0.43538833 13022388 -0.98934102 -0.0090756007 -0.14533398 0.025406001
2.5151079 -1.095624 0.43867019 11773097 -0.98610365 -0.09140379 -0.13872638 0.038289063
2.5674818 -1.0900133 0.43161821 12956340 -0.97481608 0.087020524 -0.20533149 0.039269071
2.5088696 -1.0881132 0.43829769 13153974 -0.98497456 -0.17248735 -0.008559511 0.021712596
2.506084 -1.0722436 0.43559182 13087926 -0.98782802 -0.048995234 -0.14763272 0.021805923
2.4971559 -1.0696926 0.43658903 11773095 -0.98399115 -0.046110824 -0.17214894 0.027683735
2.5093896 -1.0688311 0.43859199 13153719 -0.99454451 -0.052887853 0.089912064 0.011985612
2.5496776 -1.06349 0.43197405 13153719 -0.97833848 -0.087338261 -0.18768552 0.032736953
2.4966381 -1.0510873 0.43675765 11970217 -0.9898051 0.094789803 -0.10630513 0.045980595
2.5066824 -1.0529624 0.43579537 13219514 -0.99809831 -0.032298718 -0.052503135 0.018249718
2.5099096 -1.0495489 0.43888628 13285305 -0.99519891 0.025403116 0.094518907 0
2.5501928 -1.0443572 0.43271852 13350841 -0.97589982 -0.15098846 -0.15755048 0.029581917
2.4961202 -1.0324819 0.43692628 12167342 -0.96975565 0.24403751 -0.0044445992 0.031567555
2.5072808 -1.0336814 0.43599886 13286077 -0.99692929 0.029771756 0.07242696 0
2.5104296 -1.0302666 0.43918061 13351870 -0.99521345 0.024958137 0.094484657 0
1.706732 -1.0248795 0.43951342 6972552 -0.98881245 0.11543381 -0.094472341 0.064205706
2.5130219 -1.0206848 0.43934932 12167855 -0.99242586 0.12132887 0.019244453 0.032330189
2.5507078 -1.0252243 0.43346292 13351870 -0.98022014 -0.028475072 -0.19585122 0.026020553
1.6958755 -1.0199262 0.43181002 8417668 -0.98607266 -0.03639669 -0.1622837 0.035172116
1.7069944 -1.0104702 0.43399176 8287372 -0.95603627 -0.28491405 -0.069416799 0.081403375
1.7333719 -1.0120078 0.4343904 9602446 -0.97432882 -0.22508064 -0.0047110622 0.10897232
2.5078793 -1.0144004 0.43620235 13417663 -0.99631441 -0.085248046 0.0095044831 0.015910573
2.5109496 -1.0109845 0.43947491 13549247 -0.99813616 -0.060904011 0.0038678199 0.015739255
2.5416389 -1.01801 0.43078086 13286075 -0.99924874 0.033809263 -0.018946143 0.02628641
1.6932133 -1.0045321 0.435294 8944781 -0.98316336 0.077096984 -0.16566788 0.059120916
2.5125005 -1.0019499 0.43951914 12365232 -0.99798441 0.061465774 -0.015785068 0.027562218
2.551223 -1.0060915 0.43420732 13549249 -0.97035229 0.072166905 -0.23066939 0.02295069
1.69669 -0.99368519 0.43208697 9405329 -0.99015552 0.013303364 -0.13933837 0.038038909
1.7338771 -0.99915612 0.43500295 8610413 -0.99739277 -0.071601242 -0.0090010772 0.12212353
2.5084777 -0.99511927 0.4364059 13548995 -0.99132681 -0.10497662 -0.079064429 0.022607502
2.5114696 -0.99170232 0.43976924 13680835 -0.98627895 -0.13949844 -0.088284336 0.019801842
2.5423744 -0.9993028 0.43167254 13418174 -0.99779552 0.06327565 0.020007789 0.036197457
1.6954728 -0.98340559 0.43687013 11245473 -0.94445759 0.32388791 -0.055645496 0.034715243
1.7250602 -0.98132962 0.43568286 13091269 -0.95358032 -0.27567062 0.12120394 0.1072099
2.5119789 -0.98321515 0.43968889 12431027 -0.99917471 -0.0087693194 -0.039661884 0.018618423
2.5431099 -0.98059559 0.43256417 13483713 -0.99318433 0.10251392 -0.055460751 0.042015795
2.551738 -0.98695856 0.43495172 13615042 -0.9615593 -0.1480778 -0.23125039 0.027446318
1.6983417 -0.96738839 0.43605512 11181481 -0.91509485 0.40004635 0.050639085 0.056336142
1.717955 -0.96840638 0.43038952 10588572 -0.99032116 0.12455648 0.061234698 0.053476229
1.7255628 -0.96854633 0.43629214 10589591 -0.92857587 -0.37113476 -0.0024400055 0.065832838
2.4911127 -0.96921045 0.43512625 13681094 -0.98078007 -0.040470105 -0.19087338 0.024038913
2.5114574 -0.96448034 0.4398587 12562613 -0.99968058 -0.010791941 0.022855032 0.012077281
2.5438452 -0.96188843 0.4334558 13549506 -0.99656743 0.055934247 -0.061031133 0.047043823
2.5522532 -0.96782571 0.43569613 13812167 -0.94993412 -0.20761886 -0.2334943 0.027219359
1.7068734 -0.95908105 0.43357074 10655392 -0.98347408 0.17263296 -0.054559223 0.05147614
1.7183028 -0.95548373 0.43089232 9930632 -0.96313709 0.25482109 0.086215921 0.047881585
2.5096745 -0.95655715 0.43681288 13746889 -0.97699934 0.055419527 -0.20591503 0.03056288
2.4945118 -0.94672358 0.43957451 13944264 -0.98228389 -0.015928518 -0.18672103 0.028816013
2.5344229 -0.94226134 0.43601459 13746889 -0.94443893 -0.27652112 -0.17768292 0.026137689
2.5445807 -0.94318122 0.43434742 13549506 -0.99073291 -0.0061655771 -0.13568449 0.034465339
2.510273 -0.93727601 0.4370164 13746889 -0.99335706 -0.0072476524 -0.11484483 0.050960772
2.5349345 -0.92326546 0.43675369 13549508 -0.96354544 -0.23926546 -0.11971748 0.027259829
2.545316 -0.92447412 0.43523905 13483713 -0.99755734 -0.045556642 -0.052952647 0.037549462
2.5108714 -0.91799498 0.43721992 13681094 -0.99638414 -0.079159901 -0.030862585 0.051891766
2.5460515 -0.9057669 0.43613067 13680833 -0.99505997 0.097261623 -0.019898089 0.050477117
2.4934893 -0.89263439 0.43593451 13746887 -0.99483466 -0.098956496 -0.022617996 0.045142155
2.5170937 -0.89811218 0.43705612 13812169 -0.9919526 -0.11302841 -0.05704958 0.032936767
2.546787 -0.88705969 0.43702236 13680835 -0.99962479 0.024685722 0.011872204 0.046755679
2.4940834 -0.87349045 0.43613657 13746889 -0.99438709 -0.064218305 -0.084085144 0.034306262
2.5176013 -0.87925333 0.43778986 13943239 -0.99085444 -0.12934542 -0.038435567 0.025653001
2.5364687 -0.86627775 0.43897092 13877960 -0.97520977 0.15176457 -0.16103838 0.069229476
2.5475223 -0.86835247 0.43791398 13746374 -0.99037933 -0.093911372 -0.10163441 0.037428375
2.4946778 -0.85434639 0.43633863 14010059 -0.99467522 -0.066314131 -0.078890443 0.019883052
2.5186169 -0.84153551 0.43925738 14075854 -0.92941773 0.25655603 -0.26525789 0.070624985
2.5482578 -0.84964526 0.43880561 14075339 -0.97208154 -0.099634051 -0.21243969 0.033824526
2.4952719 -0.83520246 0.43654069 14207440 -0.98904896 0.12764771 -0.074083105 0.030493978
2.5489933 -0.8309381 0.43969724 14141647 -0.97233665 -0.00059169345 -0.23358315 0.056380928
2.4958661 -0.8160584 0.43674275 14470612 -0.99213338 0.10310316 -0.071000248 0.034204815
2.5144618 -0.8023085 0.43844098 14339026 -0.9972142 0.0010321464 -0.074584171 0.03368232
2.4970543 -0.77777034 0.4371469 14405333 -0.98970151 -0.12264711 -0.073815815 0.031827606
2.4883518 -0.75340158 0.43945551 13089988 -0.99681807 -0.03011675 0.073802017 0.013936981
2.4976485 -0.75862634 0.43734896 14339540 -0.99591595 -0.089189306 -0.014026344 0.030820528
2.4982426 -0.73948234 0.43755102 14405333 -0.99865186 0.051171742 -0.0087129846 0.023839777
2.4988368 -0.72033834 0.43775308 14471126 -0.99781746 0.050181773 0.042920094 0.013407771
2.4994309 -0.70119429 0.43795514 14405335 -0.99659359 0.031152742 -0.076358981 0.02722016
2.4867983 -0.69758546 0.43996134 13024453 -0.97849154 -0.096723206 -0.182206 0.024014177
2.500025 -0.68205035 0.4381572 14405335 -0.99504489 0.0052821613 -0.099286675 0.024787625
2.5006192 -0.66290629 0.43835926 14537434 -0.99626255 0.052580811 -0.068529494 0.028303074
2.5321381 -0.65728778 0.43003932 14273233 -0.98834288 -0.040905789 -0.14664623 0.040824853
2.5012133 -0.64376235 0.43856132 14603227 -0.99923927 0.034289107 0.018582739 0.034261398
2.5328684 -0.63870984 0.4309248 14471128 -0.98544419 -0.12669441 -0.11335078 0.029358182
2.5018075 -0.62461835 0.43876338 14603227 -0.99400729 0.10728006 0.020986982 0.048835039
2.5335987 -0.62013197 0.43181023 14273749 -0.98356265 -0.17409182 -0.047922939 0.027446646
2.5024016 -0.60547429 0.43896544 14603227 -0.99656665 0.08032281 -0.020078264 0.050266307
2.5343289 -0.60155404 0.43269572 14273749 -0.99594039 -0.011872671 -0.089228995 0.023896253
2.5214353 -0.59554893 0.43031704 14405335 -0.98647678 -0.1393726 -0.086248778 0.066830106
2.5029957 -0.58633035 0.4391675 14602714 -0.98807049 0.12749802 -0.086376943 0.054102726
2.517307 -0.57928216 0.43368313 14405335 -0.99778408 -0.066504382 -0.0020351114 0.046205912
2.5219431 -0.57669008 0.43105084 14536921 -0.96266735 -0.23675759 -0.13121514 0.055160467
2.5035899 -0.5671863 0.43936956 14537434 -0.99486017 0.0088911299 -0.10086773 0.039285067
2.5357897 -0.56439823 0.43446669 14339542 -0.99571145 -0.034162946 -0.085974671 0.027160477
2.5040591 -0.55414546 0.43138623 14536921 -0.98250085 -0.13403137 -0.12933543 0.044502236
2.504184 -0.5480423 0.43957162 14537179 -0.97351044 -0.15042064 -0.17219503 0.06472417
2.5187576 -0.54238492 0.4354417 14273749 -0.98184305 0.14474547 -0.12260914 0.033525944
2.5045631 -0.53542358 0.43211466 14536921 -0.99852574 -0.048909899 0.023543285 0.037943922
2.5047784 -0.5288983 0.43977368 14339800 -0.97300917 -0.13932028 -0.18396495 0.063999668
2.5194829 -0.52393627 0.43632105 14207956 -0.99379587 -0.037798814 -0.10459933 0.046151843
2.5050671 -0.51670164 0.43284309 14471128 -0.96521646 0.2506519 0.074369974 0.029458396
2.5053725 -0.50975424 0.43997577 14471386 -0.96189111 -0.059427783 -0.26689672 0.06748794
2.5239739 -0.50125444 0.43398583 14405335 -0.9594605 0.28055671 0.026897401 0.028271198
2.5379808 -0.50866449 0.43712309 14207956 -0.98975295 -0.097753823 -0.10408309 0.063973352
2.5387111 -0.49008656 0.43800858 14207957 -0.95867246 -0.25720343 -0.12162852 0.058795866
2.4878964 -0.48740914 0.43865848 14471386 -0.91948545 0.076967366 -0.38551599 0.080209732
2.5244818 -0.48239547 0.43471956 14471128 -0.98033524 0.18092859 -0.078788556 0.056192394
2.4884863 -0.46840224 0.43885908 14471386 -0.92682344 0.16095835 -0.33925045 0.0645689
2.5038755 -0.46567205 0.43902394 14142163 -0.96381783 -0.20990506 -0.16430192 0.061590619
2.5249894 -0.46353662 0.4354533 14405335 -0.99125016 -0.039499424 -0.12594829 0.050283093
2.5058396 -0.44458336 0.43782693 14273749 -0.99001354 -0.018312899 -0.13977766 0.023501614
2.5075874 -0.4230921 0.43648517 14339542 -0.99549842 0.038506411 -0.086603977 0.034728937
2.5080914 -0.40437019 0.4372136 14142163 -0.99321693 0.049030267 -0.10543349 0.033161711
2.5085955 -0.38564828 0.43794203 14142163 -0.99944592 -0.031673521 0.010232643 0.052456543
2.5090995 -0.36692634 0.4386704 14207956 -0.9970814 -0.076325908 0.0017725378 0.042925637
2.5096035 -0.34820443 0.43939883 14010577 -0.99942565 0.016421404 -0.029644489 0.036474794
2.5097463 -0.31459567 0.43015158 14076370 -0.99926788 -0.0090347137 0.037178487 0.011460974
2.5102623 -0.29545057 0.43044379 13944784 -0.9974454 -0.064890899 -0.029865468 0.043554865
2.5232489 -0.28304434 0.43018886 13550027 -0.99520373 -0.090286933 0.037654877 0.054093275
2.5107787 -0.2763055 0.43073601 13879502 -0.97554994 -0.18454692 -0.11935122 0.041217241
2.5061748 -0.26310685 0.43118855 13550026 -0.99539214 0.08689633 0.040540095 0.061476503
2.4931769 -0.25568312 0.43030605 13879502 -0.98126066 0.0024588685 -0.19266929 0.055647492
2.5246994 -0.24614708 0.4319475 13615819 -0.98482656 0.16678518 -0.04795146 0.0464404
2.4936895 -0.23667511 0.43059617 14011090 -0.97857076 0.079157867 -0.19008785 0.054189324
2.5254247 -0.22769845 0.43282685 13484233 -0.97650039 0.1924687 -0.096968427 0.047163196
2.5123279 -0.21887019 0.43161267 13747663 -0.98156154 0.14824881 -0.12066153 0.042259753
2.52615 -0.20924981 0.43370613 13352647 -0.98981965 0.021972023 -0.1406216 0.026335729
2.5128438 -0.19972509 0.43190488 13681613 -0.98646992 0.10240321 -0.12802643 0.038236067
2.5268753 -0.19080117 0.43458542 13155268 -0.98916793 -0.066499338 -0.13086143 0.031074237
2.4952273 -0.17965105 0.43146655 13484746 -0.98703325 -0.036946315 -0.15620618 0.059178017
2.5276005 -0.17235255 0.43546477 13089475 -0.9670707 -0.18626846 -0.17343113 0.045053743
2.5138767 -0.16143489 0.43248931 13484233 -0.99981397 -0.0053277649 -0.018537834 0.052446201
2.5104959 -0.15319072 0.43642744 12957889 -0.90748513 -0.38091347 -0.17713201 0.03400993
2.5143931 -0.14228979 0.43278152 13352647 -0.98983628 0.04958228 -0.13328876 0.071870208
2.4933815 -0.13428745 0.43737778 13088706 -0.93978679 -0.32985833 -0.089410648 0.032691121
2.5149095 -0.12314469 0.43307376 13155268 -0.9791047 -0.16361335 -0.12076706 0.062418565
2.4940965 -0.11609737 0.43824473 12957120 -0.97779149 -0.18678138 -0.095060468 0.039254982
2.497278 -0.10361897 0.43262705 13155266 -0.97741777 0.073542088 -0.19810644 0.10258748
2.5124016 -0.1040047 0.43052348 13154498 -0.99573457 0.020703105 -0.089911275 0.033602394
2.4948115 -0.09790729 0.43911174 12825534 -0.9871949 -0.10986616 -0.11565334 0.033782359
2.4977906 -0.084610946 0.43291718 13023680 -0.85946107 0.40299895 -0.31451309 0.08476688
2.5313621 -0.085537724 0.43164927 12892097 -0.99604028 -0.014782066 -0.087665871 0.029031591
2.4955268 -0.079717211 0.43997875 12890814 -0.97386837 -0.12030289 -0.19263333 0.031448476
2.5149341 -0.066135138 0.43296534 13022911 -0.98496306 0.11533837 -0.12862663 0.058209628
2.5139136 -0.047838964 0.43270874 12956607 -0.99361402 -0.10866854 -0.030371221 0.024818683
2.5351331 -0.046533704 0.43498778 12956860 -0.97370458 -0.037547138 -0.2246989 0.10973954
2.5159543 -0.028268129 0.43398601 12759740 -0.97229922 -0.075017318 -0.2213745 0.036953308
2.5149219 -0.010395138 0.4341656 12693947 -0.99201679 -0.12563919 0.010838465 0.044226889
2.518007 -0.0082741138 0.43482703 12825534 -0.92103499 0.016362127 -0.38913614 0.052765287
2.5154259 0.0083267782 0.434894 12628154 -0.97768605 -0.20952855 -0.015092106 0.036511317
2.5185235 0.01087098 0.43511927 12693948 -0.89478391 -0.01261203 -0.44632128 0.034570314
2.5159299 0.027048679 0.43562242 12299189 -0.98217762 -0.18583043 0.02818078 0.027405098
2.5372131 0.03059499 0.436165 12628155 -0.93448341 -0.067716733 -0.34950715 0.047653366
2.4989786 0.045105707 0.43594038 12364725 -0.98214817 -0.17032859 0.079832532 0.033451952
2.5195563 0.049161192 0.43570369 12496569 -0.96162885 -0.042937737 -0.27097309 0.058181241
2.4994793 0.06369824 0.43666378 12363956 -0.98350191 -0.1805436 0.011316271 0.033854801
2.5200722 0.068306282 0.43599594 12431029 -0.98449975 -0.1435703 -0.10073619 0.064702109
2.4981797 0.083664559 0.4339259 12232370 -0.99712938 -0.048372451 0.05824979 0.034957878
2.5205886 0.087451369 0.43628812 12365236 -0.99130321 -0.10732026 -0.076160014 0.067767955
2.4970946 0.10322843 0.4313316 12166576 -0.98279846 -0.010325292 0.18439242 0.039895859
2.5016985 0.10317628 0.43696448 12364724 -0.99086767 -0.1074056 -0.081518695 0.040478829
2.5009809 0.11947585 0.43883392 12429746 -0.98620188 0.15478599 -0.058712631 0.02444214
2.4978099 0.12141848 0.43219861 12100783 -0.99868256 -0.051296599 0.0013626516 0.059835307
2.5034292 0.12447729 0.43610853 12233139 -0.98420894 -0.13914984 -0.10940769 0.053685691
2.4985249 0.13960858 0.43306562 11838381 -0.9878999 -0.012114882 -0.15461913 0.044602226
2.5014815 0.13806838 0.43955731 12166574 -0.99852431 0.040424746 0.0362629 0.024524998
2.5039418 0.14348528 0.43639868 12298162 -0.96378177 -0.12398414 -0.23611978 0.037183188
2.4992399 0.15779862 0.43393257 11903404 -0.98939365 0.080880694 -0.12065915 0.028776307
2.5044546 0.16249332 0.43668878 12100783 -0.97080261 -0.042698726 -0.23604918 0.043257304
2.5151403 0.16259676 0.43601426 3417651 -0.98744988 -0.12518689 -0.096286207 0.026847051
2.4999552 0.1759887 0.43479958 11771818 -0.99430174 0.10436511 -0.021725001 0.034684896
2.5049672 0.18150133 0.43697894 12166576 -0.96490461 -0.0025861438 -0.26258814 0.036839332
2.5006702 0.19417879 0.43566659 11706025 -0.99020326 0.11546743 0.078516155 0.043994881
2.5054798 0.20050937 0.43726903 11969967 -0.96335149 -0.085890897 -0.25411958 0.044015493
2.5036888 0.21594313 0.43704635 11640744 -0.99641091 -0.045223434 -0.071555585 0.040428564
2.488291 0.23643869 0.43707278 11837609 -0.95811492 -0.019977862 -0.28568637 0.049281601
2.5199971 0.23256804 0.43732348 11508644 -0.99496782 -0.099032909 -0.015218081 0.0452298
2.5028155 0.24874909 0.43826756 11443105 -0.9980557 -0.0072718747 -0.061903119 0.052432332
2.5070176 0.25753343 0.43813944 11837352 -0.90885472 0.21524321 -0.35728636 0.028642012
2.5035307 0.26693913 0.43913451 11311519 -0.98510647 0.076457217 -0.15401202 0.071897186
2.5075302 0.27654141 0.43842953 11706277 -0.91823715 0.23687969 -0.31737763 0.043861113
2.5080428 0.29554945 0.43871969 11640484 -0.96807331 0.12183195 -0.21906862 0.059734743
2.5085554 0.31455749 0.43900979 11574691 -0.96945637 0.21823159 -0.11193445 0.044138916
2.509068 0.3335655 0.43929994 11508898 -0.96520436 0.23924822 -0.10554999 0.029911147
2.5037596 0.36198801 0.43001986 11311265 -0.99053049 -0.11191852 -0.079521202 0.02012269
2.50932 0.37169573 0.43790928 8874856 -0.98171812 -0.10164939 -0.16092552 0.014846732
2.5042603 0.38058054 0.43074325 11179679 -0.99203527 -0.11957719 -0.039590914 0.019783255
2.5047607 0.39917308 0.43146661 11245472 -0.99901813 -0.027665263 -0.034604415 0.021119334
2.5052614 0.41776562 0.43219 11245213 -0.99343008 0.10959083 -0.032962441 0.024710957
2.5331008 0.42854658 0.43077421 11311267 -0.96107352 0.26803958 0.067027308 0.069402777
2.5057619 0.43635815 0.43291339 11179420 -0.98969996 0.13966179 -0.031444073 0.021378556
2.5050983 0.44988477 0.4304873 10784410 -0.99714315 0.029737473 0.069435202 0.026601901
2.533695 0.44769052 0.43097627 11179679 -0.97471809 0.2218387 0.026688229 0.076713406
2.5237684 0.45846751 0.43403122 11047836 -0.98977637 0.11636095 -0.082479648 0.016922602
2.5058136 0.46807489 0.43135431 10784410 -0.99134463 0.029409176 0.12794909 0.025289631
2.506763 0.47354323 0.43436018 10916250 -0.99074727 0.094835117 -0.097088508 0.020070165
2.5065286 0.48626497 0.43222126 10587285 -0.99468893 -0.055312071 0.086801536 0.027249884
2.5247765 0.49591136 0.43548805 10784921 -0.99842465 -0.035227586 -0.043673143 0.035763811
2.5072436 0.50445503 0.43308827 10521749 -0.99115103 -0.094036713 0.093684413 0.026470521
2.5354774 0.50512254 0.43158248 10916507 -0.97032106 0.17615245 -0.16567273 0.052271072
2.5252805 0.51463336 0.43621647 10850968 -0.9977026 -0.065693051 -0.016552182 0.037373062
2.508112 0.52598298 0.4352428 10653078 -0.98949391 -0.14441213 -0.006849648 0.035951354
2.5177858 0.52020121 0.43032533 10850457 -0.97549427 0.16953655 -0.14024362 0.036831219
2.4917858 0.53686887 0.434912 10324372 -0.9858349 -0.16430165 -0.033684317 0.052472394
2.5087652 0.54791337 0.43725371 10784411 -0.99544686 -0.085762061 -0.041597947 0.024778463
2.5366657 0.54341054 0.4319866 10784410 -0.98660713 -0.035567336 -0.15918981 0.042955369
2.4924963 0.55493724 0.43577322 10324113 -0.99944532 -0.030102177 0.014246345 0.042392071
2.5092659 0.56650585 0.43797711 10521749 -0.99950498 -0.031443302 0.0010569394 0.022359697
2.5372598 0.56255454 0.43218866 10718617 -0.99116582 0.016148454 -0.13164204 0.080011725
