# .PCD v0.7 - Point Cloud Data file format
VERSION 0.7
FIELDS x y z rgb normal_x normal_y normal_z curvature
SIZE 4 4 4 4 4 4 4 4
TYPE F F F U F F F F
COUNT 1 1 1 1 1 1 1 1
WIDTH 529
HEIGHT 1
VIEWPOINT 0 0 0 1 0 0 0
POINTS 529
DATA ascii
1.5240933 0.43625498 0.093157411 9470080 -0.097174399 -0.055283066 0.99373084 0.0014928962
1.5466204 0.43923715 0.092543781 10586000 -0.086902745 -0.0033043812 0.99621135 0.0023224528
1.5787909 0.43891147 0.095584333 9667462 -0.079555765 0.010833353 0.99677157 0.0016346626
1.5892462 0.43713883 0.094679177 10717586 -0.11755034 0.024695486 0.99275988 0.0023655025
1.6261635 0.43276358 0.098623455 10652563 -0.10805973 0.024475127 0.99384308 0.002104636
1.5061561 0.44130367 0.090455592 10519946 -0.095659502 0.025300564 0.99509257 0.0024497178
1.5241975 0.44828486 0.093765169 9404287 -0.097290024 -0.030514527 0.99478817 0.0023932741
1.5663064 0.44220164 0.092455029 10585739 -0.17302495 0.016429843 0.98478043 0.0042004101
1.5929408 0.44885907 0.099218577 10520975 -0.12532729 0.031599864 0.99161214 0.0038185746
1.6263254 0.44567591 0.09940809 10586770 -0.11784402 0.024193998 0.99273735 0.0018715872
1.5742927 0.4571633 0.090711385 10519946 -0.16367637 0.017616473 0.98635679 0.0043461355
1.5954852 0.45395601 0.093712121 10192524 -0.13508308 0.010522973 0.99077839 0.001808427
1.5243016 0.46031475 0.094372928 9403773 -0.10645983 -0.013475348 0.99422574 0.0026717719
1.5547751 0.46641418 0.09222579 10454932 -0.10142154 -0.0015821382 0.99484229 0.0019105832
1.5744741 0.46984702 0.090844899 10519946 -0.15153533 0.021766298 0.98821217 0.0037998084
1.5956193 0.46659076 0.094415605 10060939 -0.11647166 -0.0044483757 0.99318403 0.0017054372
1.6019226 0.46429512 0.097308695 10586254 -0.085656129 0.037909217 0.99560332 0.0028369448
1.4875685 0.47352642 0.090041995 9667713 -0.09737204 0.0045887791 0.99523747 0.0031350146
1.5244058 0.4723447 0.094980687 9141115 -0.11623697 0.0077350475 0.99319136 0.0022697817
1.5549309 0.47883978 0.092980802 10390163 -0.096558183 -0.018582173 0.9951539 0.0019045403
1.5860224 0.47839195 0.09632355 9601667 -0.086796068 -0.022522774 0.9959715 0.0022363705
1.6021068 0.47716925 0.097444206 10586254 -0.090108991 0.059527613 0.99415129 0.0024743357
1.6345367 0.47387967 0.099266529 10586254 -0.13751844 -0.0072587542 0.99047261 0.0012020338
1.6551166 0.4790177 0.098559588 10651536 -0.10813582 0.027370332 0.99375933 0.0015879513
1.4876704 0.48529002 0.090636313 9601920 -0.098166645 0.012348004 0.99509341 0.0028722284
1.5245099 0.48437461 0.095588416 9075322 -0.118853 0.012572095 0.99283224 0.0022730932
1.566848 0.48006988 0.092853606 10454153 -0.14414887 0.011146439 0.98949325 0.0037610412
1.5792216 0.48864427 0.098096848 9470594 -0.086316787 -0.024597205 0.99596405 0.0020598816
1.6054554 0.48001033 0.093459457 10454414 -0.10202083 -0.018626098 0.99460793 0.0012713923
1.5571536 0.49071813 0.094298452 10257547 -0.10627911 -0.0063027125 0.9943164 0.0021489295
1.5977484 0.49028885 0.09599638 10454414 -0.10250628 -0.030337438 0.99426967 0.0013672878
1.6101137 0.49250337 0.095763534 10454668 -0.099778533 0.040367495 0.99419051 0.0023967307
1.5393972 0.5014261 0.093647927 9074808 -0.087328508 0.029720113 0.99573618 0.0013055692
1.5646589 0.50565386 0.093013421 10125960 -0.097051591 -0.0070296125 0.99525452 0.0021016663
1.5862386 0.50336492 0.097585171 9404288 -0.11282109 -0.031687103 0.99310994 0.0014734804
1.605776 0.50557643 0.095012933 10388621 -0.099524215 -0.028221833 0.99463487 0.0011504705
1.6181223 0.50795943 0.094084084 10257805 -0.10790043 0.031780988 0.99365366 0.0013726939
1.5395024 0.51357013 0.094261467 8877944 -0.10301329 0.024787311 0.99437106 0.0014761236
1.562265 0.51847112 0.093665779 10125449 -0.1137152 -0.007690277 0.99348366 0.0018635427
1.5863469 0.51585132 0.098215997 9469311 -0.10823336 -0.01341968 0.99403501 0.0011665951
1.6059362 0.51835954 0.095789701 10322828 -0.10118783 -0.039530907 0.99408168 0.00099587033
1.5465072 0.52816415 0.0936912 8877943 -0.1079729 -0.00028845671 0.99415386 0.0014731477
1.5751998 0.5205819 0.091378927 10190981 -0.078104876 0.051210307 0.99562901 0.0012659378
1.5982269 0.52845538 0.098315597 10388362 -0.10290334 -0.032122523 0.99417257 0.0014584064
1.6183082 0.5209555 0.094220877 10257803 -0.10803136 0.0342995 0.99355561 0.0012563654
1.5624214 0.53094995 0.094424009 10125190 -0.11900996 -0.0039403955 0.99288523 0.0019996311
1.5943525 0.53107375 0.097550392 9338495 -0.10844088 -0.0090549365 0.99406165 0.00087642594
1.6184942 0.53395152 0.094357669 10323082 -0.12851222 0.025981605 0.99136758 0.00071761396
1.5019598 0.54933292 0.091152191 9337980 -0.099972934 0.0039054793 0.99498254 0.0017816168
1.5544988 0.54322225 0.092957586 8614771 -0.11356515 -0.010476266 0.99347538 0.0011976673
1.5625778 0.54342884 0.0951823 10256006 -0.11865932 0.00053050369 0.99293494 0.001537525
1.5755627 0.54594934 0.091645926 10190981 -0.083144873 0.025476761 0.99621177 0.00091576949
1.5865631 0.54082423 0.099477649 9338495 -0.10345244 -0.013102699 0.99454808 0.00073849986
1.6062567 0.54392558 0.097343236 10190981 -0.094887197 -0.015626151 0.99536544 0.0013236332
1.61868 0.5469476 0.094494462 10191496 -0.12915538 0.01833766 0.99145484 0.00073564879
1.6560651 0.54533112 0.099257588 10191496 -0.13736284 0.023167599 0.99024987 0.00056688802
1.5467185 0.55255872 0.094923615 8417393 -0.12168359 -0.0022429267 0.99256647 0.0013456726
1.5705844 0.55878091 0.094145775 10059397 -0.11959052 -0.014219213 0.9927215 0.0017154677
1.5945698 0.55616844 0.098818153 9141116 -0.10512285 -0.021438355 0.99422812 0.00054851599
1.6064169 0.55670857 0.098120004 10125703 -0.096126035 -0.022283034 0.99511969 0.0019418029
1.618866 0.55994362 0.094631255 10125190 -0.12337246 0.0030904182 0.99235564 0.00085363485
1.6562549 0.55859375 0.099397182 10191496 -0.13716851 0.0085818758 0.99051052 0.00075230416
1.5468241 0.5647561 0.095539838 8417393 -0.12056753 -0.0022136904 0.99270266 0.0014008059
1.5946785 0.56871575 0.099452049 9009789 -0.10644637 -0.022882242 0.99405515 0.00071281026
1.5335584 0.57634735 0.091596141 9008760 -0.091634445 -0.019116191 0.99560922 0.00054668321
1.5469297 0.57695341 0.096156031 8417393 -0.10985209 -0.0014292747 0.99394697 0.0018284977
1.5785924 0.57425487 0.093116701 9797252 -0.12589265 -0.012630584 0.99196351 0.0022791107
1.583739 0.57420421 0.090042263 9796225 -0.10302127 -0.026953211 0.99431396 0.0011451944
1.6190518 0.57293963 0.094768047 9993604 -0.11505519 -0.0077739032 0.99332869 0.00035484735
1.6564445 0.57185638 0.099536777 10059397 -0.13198252 0.0057709869 0.99123526 0.00077006861
1.526744 0.58531934 0.092261285 8876663 -0.093210161 -0.020397156 0.9954375 0.00058733259
1.5362077 0.58531207 0.091860592 9664123 -0.088788323 -0.029108644 0.99562508 0.0014450356
1.5735029 0.58393043 0.093858108 9730689 -0.11863092 -0.029869296 0.99248904 0.0021593221
1.6067375 0.58227473 0.099673539 9928324 -0.082733363 -0.018361405 0.99640262 0.0021571354
1.6192378 0.58593571 0.09490484 9928070 -0.10579492 -0.0089425826 0.99434781 0.0005235647
1.6566343 0.58511913 0.0996764 9993602 -0.132495 -0.0038696257 0.99117613 0.00061758002
1.5092627 0.59963888 0.092333853 9009783 -0.10532667 -0.026006689 0.99409759 0.0021582695
1.5128996 0.59132671 0.093498603 8876917 -0.093821913 -0.021145796 0.99536443 0.00059686741
1.5363619 0.59761602 0.092608273 9072500 -0.076238133 -0.058694098 0.99536067 0.0015328709
1.5549234 0.592255 0.095434725 8482671 -0.10588807 -0.01012437 0.99432653 0.0022619697
1.5789083 0.59945589 0.094648063 9862020 -0.13577327 -0.050922468 0.98943043 0.0023725131
1.5841037 0.59969348 0.090310544 9730430 -0.10250375 -0.031352341 0.99423844 0.0023183667
1.6166805 0.59754735 0.096937798 9468287 -0.090332404 -0.02704596 0.99554437 0.0013429091
1.656824 0.59838176 0.099815995 10124420 -0.13241567 -0.0048878514 0.99118227 0.0006445662
1.5619321 0.6072827 0.094886363 8416623 -0.098911278 0.018839439 0.99491793 0.0029469887
1.5764699 0.60936791 0.092313468 9796223 -0.11031979 -0.025168844 0.99357748 0.0026817489
1.6070504 0.60452986 0.097960025 8548979 -0.095153779 -0.027287055 0.99508852 0.00049108668
1.509366 0.61156231 0.092936218 9009015 -0.11606748 -0.039315045 0.99246293 0.001652033
1.5443481 0.61310118 0.091522813 8546671 -0.083130531 -0.093908131 0.99210411 0.0016680532
1.5688343 0.61892039 0.094315141 9927294 -0.12628509 -0.012396267 0.99191654 0.0030605216
1.5790663 0.61205643 0.095413744 9796738 -0.11522276 -0.040643416 0.99250787 0.0024578199
1.6196096 0.61192781 0.095178425 9862531 -0.081793576 -0.01142497 0.99658382 0.0014055441
1.6658394 0.61495948 0.097984463 10190467 -0.13755006 0.0017660419 0.9904933 0.00087572599
1.5094693 0.62348568 0.093538582 8942709 -0.11091997 -0.043835897 0.99286211 0.0015251983
1.5445032 0.62546599 0.092274129 8349292 -0.092419863 -0.061089754 0.99384439 0.0029925969
1.5699277 0.62282026 0.094176978 8416878 -0.1042886 -0.0038707706 0.99453956 0.002830412
1.5792242 0.62465698 0.096179366 9665666 -0.089716278 -0.031580221 0.99546653 0.0027679368
1.6197954 0.62492388 0.095315278 9796738 -0.069327801 -0.010383191 0.99753994 0.0016925926
1.4964261 0.63201076 0.092805088 9795709 -0.076612681 -0.080550522 0.99380183 0.0035388435
1.5164658 0.63839442 0.092931986 8745330 -0.081118576 -0.029217364 0.99627614 0.0016610981
1.5368246 0.63452792 0.094851196 8612464 -0.091929913 -0.035306539 0.99513936 0.0046883044
1.5690149 0.63154322 0.094448 9927295 -0.13002023 0.0061412198 0.99149233 0.0029640193
1.5707812 0.63460588 0.096759826 9008504 -0.087977067 -0.022249734 0.99587399 0.0029664873
1.6199814 0.6379199 0.09545207 9796223 -0.074519239 -0.025704388 0.99688828 0.0021188147
1.50439 0.64746159 0.091660559 9598329 -0.067621291 -0.014406879 0.99760711 0.0046648448
1.5301241 0.64388859 0.097193122 9138293 -0.096759148 -0.018990407 0.99512666 0.004823545
1.5691955 0.64416599 0.094580859 9467260 -0.14015979 -0.0071022627 0.99010348 0.0034952632
1.5716848 0.64655876 0.099479616 9599359 -0.09073016 -0.016811769 0.99573368 0.0036989069
1.4652838 0.65637678 0.090511978 9335927 -0.10754511 0.0087683201 0.99416161 0.0035715241
1.5165695 0.65037102 0.093537062 8547949 -0.087144181 -0.017952695 0.99603397 0.0015943366
1.5302777 0.65613931 0.097937524 9400951 -0.091224074 -0.021539111 0.99559748 0.0049825213
1.5702491 0.65993726 0.09605214 8350830 -0.097263947 -0.040917035 0.99441719 0.0035421515
1.584936 0.65384191 0.092942268 8416878 -0.13947596 -0.034105353 0.98963797 0.0044184905
1.6289796 0.65450615 0.093554258 9730432 -0.088533588 -0.025931191 0.99573565 0.0024384039
1.5235673 0.66543955 0.092938542 8350313 -0.084755652 -0.014277989 0.99629951 0.001715649
1.5555604 0.66580421 0.099150449 8218986 -0.10433817 -0.040646426 0.99371094 0.0033304424
1.5771956 0.66010278 0.092847496 9533053 -0.1333314 -0.0031223483 0.99106663 0.0047565605
1.5875542 0.66581845 0.096711159 9401980 -0.094886631 -0.03132382 0.99499518 0.0035690179
1.6291665 0.66757071 0.093691766 9598844 -0.099515438 -0.038126022 0.99430537 0.0033923078
1.6323153 0.66927099 0.098983705 9533053 -0.13334538 -0.056703184 0.98944622 0.0037900894
1.514369 0.67264432 0.094131961 8151649 -0.086314954 -0.011727929 0.99619889 0.00078123249
1.5372874 0.67143971 0.097094178 9072500 -0.086212963 -0.015409369 0.99615753 0.0049687275
1.5864553 0.67732066 0.09429799 9335161 -0.1014301 -0.040359817 0.99402368 0.0045884824
1.6127042 0.67359483 0.097669661 9467771 -0.093092985 -0.047960501 0.99450165 0.0035775248
1.480068 0.68261939 0.090481311 8350313 -0.086067401 -0.037004229 0.99560189 0.0018419622
1.5315511 0.68106389 0.092173785 8284266 -0.093207173 -0.033112403 0.99509603 0.0020007335
1.5625718 0.68115151 0.098618239 8218727 -0.093657359 -0.047680594 0.99446207 0.0028291533
1.5853798 0.68890613 0.091249585 9269365 -0.11783493 -0.075144261 0.99018598 0.0045648441
1.6050534 0.68315583 0.099612385 9400951 -0.10615637 -0.066093959 0.99215043 0.0038652942
1.4732844 0.69102216 0.092317849 8218725 -0.074210361 -0.052313197 0.99586958 0.001941575
1.5049959 0.6957953 0.094597578 9005422 -0.10566437 -0.0072674528 0.99437535 0.0046461858
1.5185214 0.69003069 0.090601385 9071986 -0.091123559 0.0097176963 0.99579221 0.004612566
1.5288612 0.69010544 0.092400044 8020325 -0.052954629 -0.10463238 0.99310011 0.0025425123
1.5316559 0.69315463 0.092784613 8152680 -0.095994323 -0.031325158 0.99488884 0.0018018417
1.5531148 0.69083619 0.094219953 9006707 -0.077295668 -0.0094859125 0.99696308 0.0039270837
1.6052376 0.69603002 0.099747896 9137779 -0.10960016 -0.089826122 0.98990864 0.0029634521
1.6669836 0.69494683 0.098826379 9401978 -0.13000934 -0.016499814 0.99137551 0.0021725418
1.4802707 0.70604002 0.091664523 8284518 -0.072313733 -0.066332698 0.99517369 0.0018610361
1.5051473 0.70787883 0.095331848 8808300 -0.073382296 -0.039911695 0.99650496 0.0038474374
1.5290375 0.70243108 0.092529804 7757152 -0.058777869 -0.10176165 0.99307084 0.0026078757
1.5317606 0.70524549 0.093395442 8021346 -0.096578889 -0.017410139 0.9951731 0.0019292011
1.5532706 0.70326173 0.094974965 9005939 -0.078054436 -0.031511154 0.99645102 0.0032723141
1.562785 0.70577437 0.099862188 8021094 -0.095070861 -0.047199469 0.99435097 0.0030333849
1.5867963 0.70272666 0.095201507 9006450 -0.10555932 -0.059474513 0.99263287 0.0035560282
1.6054218 0.70890421 0.099883407 9006192 -0.10119702 -0.078192748 0.9917888 0.0028449215
1.4795188 0.71026015 0.090040505 9071986 -0.080401152 -0.045693561 0.99571472 0.0034885956
1.4803722 0.71775037 0.092256129 8349541 -0.071869791 -0.058567084 0.99569309 0.002085835
1.5223805 0.71153623 0.094340742 7822433 -0.073313393 -0.087040327 0.99350351 0.0026737005
1.5318654 0.71733624 0.09400627 7955553 -0.098305896 -0.023155168 0.99488688 0.002261071
1.5455883 0.71201956 0.097533584 8874606 -0.084298529 -0.060518742 0.99460107 0.0031450673
1.5741001 0.71537012 0.094379783 8743791 -0.091191776 -0.074999668 0.9930051 0.0036932826
1.5881891 0.71646392 0.099788666 8743537 -0.11812586 -0.037568606 0.9922877 0.0030736153
1.4320694 0.72946656 0.091195583 8021346 -0.10651471 -0.048530895 0.99312609 0.0034334436
1.4804735 0.72946078 0.092847735 8152160 -0.074241892 -0.0065565221 0.99721873 0.0010864448
1.4904107 0.72198796 0.090141773 8940397 -0.1226594 -0.037899524 0.99172491 0.0032463984
1.5121394 0.72328132 0.094444811 8743021 -0.082550675 -0.064622201 0.99448955 0.0038899323
1.5233221 0.7246989 0.095223606 7954528 -0.090072826 -0.043729838 0.99497467 0.0022683758
1.4905831 0.7340318 0.090268552 8677995 -0.13969769 -0.052900415 0.98878014 0.0029194348
1.5191327 0.73879027 0.093564272 8545641 -0.10035565 -0.036893297 0.9942674 0.0040562111
1.5268794 0.73851359 0.094752043 7888479 -0.090991743 -0.031274185 0.99536043 0.0021935592
1.5706757 0.73334831 0.097656682 8283496 -0.088954121 -0.049600974 0.99479997 0.0027242643
1.4390444 0.7444492 0.090488285 7758433 -0.08279261 -0.020742202 0.99635094 0.0037286247
1.4799669 0.74600852 0.092212796 8677227 -0.072964333 -0.0042538787 0.99732548 0.0023673589
1.4874618 0.74469179 0.092205167 7955553 -0.081583366 0.0092441402 0.99662364 0.000811212
1.4907553 0.74607563 0.090395302 8743272 -0.14158447 -0.068543009 0.98755044 0.0027734297
1.5229071 0.7483533 0.094728261 7888479 -0.084237508 -0.036181323 0.99578863 0.0030828062
1.5537379 0.74053866 0.09724012 8546671 -0.086438388 -0.047534455 0.99512255 0.0021994296
1.5628144 0.74140751 0.09750548 8677228 -0.058685936 -0.046279378 0.99720323 0.002857497
1.5963674 0.74551165 0.099584311 8743021 -0.094386071 -0.017620128 0.99537981 0.0031869027
1.4751542 0.75545406 0.096348315 7954271 -0.087118857 -0.010928608 0.99613804 0.0015378196
1.4841038 0.7546317 0.092252076 8611432 -0.13482636 -0.001574927 0.99086797 0.0056252554
1.5192856 0.7509802 0.094304979 8414053 -0.11615711 -0.0035492927 0.99322456 0.0037894226
1.5390768 0.75707328 0.094654024 7626588 -0.1298129 -0.036613435 0.99086231 0.0019194436
1.5538937 0.75296432 0.097995192 8480878 -0.088632792 -0.034652814 0.99546146 0.0024261058
1.5708206 0.75777096 0.095776647 8677227 -0.071892068 -0.0092212763 0.99736977 0.0026319812
1.4944509 0.76002932 0.091567993 7823965 -0.10372908 0.0035478398 0.99459928 0.0018430679
1.5194384 0.76317006 0.095045686 8216417 -0.13289316 0.009553886 0.99108428 0.0046383841
1.5230826 0.76062566 0.094857424 7756377 -0.085831344 0.0058331052 0.99629259 0.0028720165
1.5391819 0.76921731 0.095267564 7560023 -0.13424979 -0.04050722 0.99011934 0.0019349889
1.4455785 0.77190888 0.091273457 8151399 -0.10573801 0.0049714893 0.99438161 0.003313551
1.494229 0.77440536 0.092434511 7757918 -0.11358706 0.0070908354 0.99350274 0.0033067982
1.5195912 0.77535993 0.095786452 8019297 -0.13046697 0.02625639 0.99110496 0.0045791841
1.5232582 0.77289802 0.094986618 7691100 -0.084403656 0.029376529 0.9959985 0.0030239173
1.5323888 0.77779019 0.097060442 7297621 -0.12650293 -0.030251397 0.99150491 0.0019643696
1.5710012 0.77039373 0.095909506 8479849 -0.075511396 -0.00074451324 0.9971447 0.0027118861
1.4933313 0.78497022 0.091539808 7823457 -0.09878359 0.013512218 0.99501717 0.0038338334
1.5324936 0.78988105 0.09767127 7035475 -0.12246121 -0.028090782 0.99207568 0.0020641366
1.5557038 0.78767037 0.09989357 8086117 -0.10228645 -0.0063326829 0.99473482 0.0045581502
1.57901 0.78693992 0.094182551 8349030 -0.099633731 -0.015778285 0.99489909 0.0032300339
1.494758 0.79547995 0.093358964 6969946 -0.13750124 -0.019247944 0.99031454 0.0025201796
1.5261395 0.79470801 0.097158283 7165786 -0.15211438 -0.018605091 0.98818773 0.0031790328
1.5380864 0.79275697 0.091520458 7493980 -0.097643413 0.0063786865 0.99520105 0.005422791
1.6143695 0.79001075 0.098895043 8413796 -0.097374216 0.041632801 0.99437666 0.0045451093
1.4561572 0.80682075 0.090510786 8152681 -0.045260455 -0.062081054 0.99704432 0.0031280131
1.4879712 0.80350983 0.095176667 7101018 -0.12458275 -0.026339773 0.99185956 0.0035240906
1.5108483 0.80872774 0.095702112 6509908 -0.12519081 -0.0059168707 0.99211508 0.0010302718
1.5257213 0.8040725 0.094999447 6837080 -0.13285771 -0.007425617 0.99110729 0.0038178014
1.5382637 0.80514365 0.091650814 7230809 -0.12089056 0.019411614 0.99247605 0.0064422619
1.5715429 0.80826205 0.096308112 7626083 -0.079937913 -0.021102725 0.99657643 0.0025922109
1.4563046 0.81857723 0.091225147 7758182 -0.076754987 -0.044663806 0.99604911 0.0039025072
1.5021694 0.81736928 0.090662837 8151911 -0.050120682 -0.072245091 0.99612683 0.0037185531
1.532671 0.8166014 0.094140172 7822947 -0.16338451 0.0086322203 0.9865247 0.0055108098
1.639066 0.81520408 0.093403667 8019036 -0.12282044 0.013937606 0.99233103 0.004998228
1.4193898 0.8235383 0.090092063 7954531 -0.064214259 -0.041729581 0.99706328 0.0030943966
1.4843516 0.82536411 0.096098363 7626336 -0.058559429 -0.075641677 0.99541408 0.0044543678
1.5018522 0.82295388 0.093334943 7102045 -0.15713862 -0.014328239 0.98747265 0.0018326803
1.5110573 0.82029885 0.095792234 6707285 -0.12527323 -0.0058431723 0.99210507 0.0010243967
1.5239605 0.82198739 0.09550333 7625566 -0.20108724 -0.010590203 0.97951609 0.0051892893
1.5397078 0.82993764 0.098335147 6575189 -0.095617212 0.0095986696 0.99537194 0.0011509203
1.5600662 0.82097578 0.099293619 7823462 -0.11520448 -0.033621263 0.9927727 0.00437298
1.4195341 0.83503616 0.090790719 7822948 -0.051239882 -0.0021910521 0.99868399 0.0029059378
1.4467149 0.83975303 0.093838781 6772567 -0.090574592 -0.047179982 0.99477148 0.0037069677
1.456452 0.83033359 0.091939509 7888738 -0.084245659 -0.045402896 0.99541014 0.0042805565
1.5019549 0.83482403 0.093934625 6838360 -0.13270509 -0.016064905 0.99102539 0.0027033074
1.5173078 0.83527952 0.095398679 6378320 -0.13747752 0.026903708 0.99013942 0.00095489708
1.5329244 0.83507901 0.094643727 7494492 -0.14019059 -0.048786137 0.98892188 0.0059236074
1.4565994 0.84209007 0.09265393 7691359 -0.10823022 -0.019714242 0.99393034 0.0039222962
1.4879909 0.84524554 0.096369982 7626336 -0.06338194 -0.067967281 0.99567223 0.0061964542
1.4951674 0.84274739 0.095746934 6838360 -0.11789207 -0.024263011 0.99272996 0.0039533037
1.5281799 0.8406502 0.097670376 7100252 -0.082814991 -0.069804862 0.9941172 0.0073789265
1.6151097 0.84175116 0.099439651 8019812 -0.062885635 -0.051024202 0.99671561 0.0040190043
1.4527119 0.8547346 0.093340576 6707028 -0.082920581 -0.036349088 0.99589306 0.0035876632
1.4813114 0.85325378 0.098729551 7625820 -0.081347376 -0.061365373 0.99479491 0.0061843893
1.5021605 0.85856432 0.09513399 6641492 -0.09548007 -0.016459551 0.99529529 0.0031361296
1.5354172 0.8537724 0.096824892 6969176 -0.10826036 -0.038391061 0.99338102 0.0042089713
1.5644315 0.85446399 0.098695517 7495264 -0.08100196 0.0062705525 0.99669421 0.0026728173
1.6152947 0.85468632 0.099575788 7822433 -0.10698248 -0.070744745 0.99174088 0.0038286126
1.4703686 0.86188185 0.09001106 7560290 -0.097130276 -0.03710277 0.99457985 0.0044768681
1.4882909 0.86918426 0.097824633 7297884 -0.08101514 -0.039913733 0.99591345 0.0052426294
1.4924781 0.86651379 0.091663033 7495004 -0.067320533 -0.051896751 0.99638081 0.004607995
1.5313295 0.86266488 0.094216377 7493980 -0.13856308 -0.026787434 0.98999125 0.0066183652
1.5646112 0.86702573 0.09882772 7428958 -0.096632332 -0.004269185 0.99531102 0.002996034
1.6154797 0.86762142 0.099711955 7625567 -0.10375868 -0.083855532 0.99106133 0.0039488231
1.4705173 0.87374467 0.090731919 7429217 -0.10208663 -0.03119134 0.99428642 0.0038136782
1.4858191 0.87453657 0.093514144 7494750 -0.06731987 -0.051897094 0.99638081 0.0046082395
1.5022633 0.87043434 0.095733672 6641494 -0.092783429 -0.0080131041 0.99565411 0.0022562775
1.5246626 0.87107682 0.096020013 7231578 -0.12096182 -0.026791219 0.99229556 0.0062135472
1.5431609 0.87351876 0.09576124 7166299 -0.074559473 -0.031458657 0.99672025 0.003832289
1.5548123 0.87482136 0.097688854 6312529 -0.10887328 -0.040012926 0.99325007 0.0014749704
1.4706661 0.88560754 0.091452777 7232351 -0.11365174 -0.014039299 0.99342144 0.0029176418
1.488441 0.88115364 0.098551929 6904156 -0.089640141 -0.024795443 0.99566555 0.0044076149
1.5092578 0.88641107 0.095128775 6444116 -0.11122432 -0.021541109 0.99356186 0.0011300643
1.5316823 0.88731623 0.094475865 7231578 -0.11429125 -0.0092660338 0.99340409 0.0046739504
1.5470304 0.88251114 0.099631399 6312529 -0.10161941 -0.040996175 0.99397832 0.0015960381
1.5726262 0.88399863 0.097105294 7363165 -0.080493756 -0.032338239 0.99623042 0.0023582554
1.4885911 0.89312297 0.099279284 6969177 -0.089527242 -0.024922818 0.99567246 0.0044187182
1.5318586 0.89964187 0.094605595 7099993 -0.12074699 -0.023658313 0.99240136 0.0039555817
1.5728068 0.89662141 0.097238153 7100252 -0.080527313 -0.0321404 0.99623412 0.0023624899
1.5729874 0.90924412 0.097371012 7034972 -0.10067725 -0.050378464 0.99364287 0.002157931
1.56533 0.91727304 0.099356622 7034461 -0.091815263 -0.049712796 0.99453437 0.0015082548
1.9001105 -1.0134608 0.10728732 8150881 -0.09952569 0.038781304 0.99427903 0.0031644467
1.9480133 -1.0040154 0.10675043 11969714 -0.12473601 -0.031916641 0.99167651 0.0029995365
1.6951442 -0.9841826 0.10866944 5324872 -0.696033 0.46458682 0.54744601 0.034229595
1.875425 -0.98535705 0.10493088 8744037 -0.086936936 -0.001513279 0.99621266 0.0039278436
1.6778076 -0.97755325 0.10412954 1445138 -0.75925338 0.38766998 0.52272975 0.042165887
1.697984 -0.97009629 0.10107362 10059381 -0.51011932 0.22722928 0.82954514 0.090160675
1.8890589 -0.97624797 0.10565282 7364439 0.077232674 0.95181936 0.29677439 0.068700932
1.6861801 -0.96754265 0.10632911 3416359 -0.72494572 0.42354533 0.54319704 0.044857983
1.705308 -0.96193522 0.10463423 7297883 -0.68581271 0.40777412 0.6028111 0.067261606
1.8317938 -0.96645576 0.10647112 8216928 0.044584032 0.12612228 0.99101233 0.017891865
1.6861933 -0.95571697 0.10380125 3808033 -0.64659864 0.40269673 0.64787769 0.045507256
1.7162918 -0.95119745 0.10736746 2952983 -0.40410474 0.5731492 0.71288109 0.038138386
1.7875047 -0.95776051 0.10733217 6967124 0.14042254 0.47183418 0.87043327 0.055726275
1.8082074 -0.9536069 0.10331473 8940387 0.056934983 0.16560529 0.98454732 0.015970057
1.8541212 -0.95984662 0.10929173 9138797 -0.01492271 0.062324107 0.99794441 0.0076483353
1.8758541 -0.95535791 0.10524666 9335923 -0.075550966 -0.019193843 0.99695724 0.0038669114
1.6964639 -0.9452765 0.10517803 5653064 -0.58898002 0.4521012 0.66985601 0.065386526
1.7128282 -0.94075954 0.10983441 918038 -0.71046782 0.5428164 0.44786811 0.058658488
1.7237109 -0.94141978 0.10643101 6701884 -0.15781419 0.63368428 0.75732362 0.061077747
1.7392814 -0.94945079 0.10875684 7430256 -0.25080064 0.57127851 0.78149843 0.072841592
1.7574613 -0.94496405 0.10600922 6307137 -0.038223088 0.51368862 0.85712492 0.061122261
1.8189763 -0.94588995 0.10543916 8612449 0.013224517 0.15823299 0.98731321 0.015291881
1.8219379 -0.94730747 0.10924134 8941670 -0.056640409 0.0093459105 0.99835086 0.0017192367
1.838809 -0.94291329 0.10757786 8218978 -0.064482965 0.10993992 0.9918443 0.0045523741
1.6970288 -0.93216568 0.10345407 8809572 -0.44084033 0.27515179 0.85437185 0.063175067
1.7391751 -0.93610704 0.10547572 7755339 0.018048763 0.70478016 0.70919621 0.042441051
1.7449349 -0.93785089 0.10168582 10517612 -0.07012976 0.55198336 0.83090091 0.052948795
1.7576333 -0.93124568 0.10684279 8939101 0.045543429 0.41222769 0.90994179 0.042225614
1.7670863 -0.93646473 0.10210779 9599083 0.15721998 0.39528716 0.90500277 0.056443337
1.8321509 -0.93796957 0.1082021 9073002 -0.05676955 0.0091984235 0.99834502 0.0016951647
1.8653071 -0.93527049 0.10750425 9336428 -0.08628346 -0.017601652 0.99611515 0.0021319082
1.6736867 -0.92979527 0.10047477 12759990 -0.16064064 0.3132908 0.93597198 0.052181147
1.7675091 -0.92254484 0.10425289 9599598 0.0069321431 0.3044633 0.95249879 0.043335572
1.8389331 -0.92858541 0.1083017 8153696 -0.082199365 0.091322601 0.99242306 0.0053579547
1.842366 -0.92847961 0.10717201 9269867 -0.0507828 0.014912803 0.9985984 0.0018855693
1.8655205 -0.92035472 0.10766125 9402221 -0.083243079 -0.021078547 0.99630636 0.0020340951
1.7875605 -0.91626358 0.10528941 9335401 -0.076851197 0.083204739 0.99356478 0.010570331
1.8425455 -0.91416043 0.10804212 9401453 -0.049009494 0.033536606 0.99823511 0.0024683697
1.8737521 -0.91251194 0.10556784 8876136 -0.10069745 0.03029961 0.99445564 0.0038022702
1.7552812 -0.90043128 0.10007203 12495270 -0.1553411 0.087282881 0.9839974 0.0071086106
1.7673253 -0.90885907 0.10350245 10127486 0.00039580464 0.20996612 0.97770864 0.031902708
1.7871755 -0.90386093 0.10364071 9795958 -0.092210002 0.040547647 0.9949137 0.0041686427
1.7976512 -0.90715462 0.1028946 10060153 -0.0020596087 0.11086847 0.99383295 0.018936727
1.8711325 -0.90009326 0.10615152 8481380 -0.081475221 0.0070764949 0.99665028 0.0059829196
1.8090373 -0.89558941 0.10392541 9927286 -0.07910338 0.0063876212 0.99684596 0.0024881221
1.842725 -0.89984131 0.10891223 9598319 -0.059087634 0.025158629 0.99793577 0.0022039379
1.8659472 -0.89052325 0.10797524 9336428 -0.085703552 0.0038480479 0.99631327 0.0026835958
1.6919808 -0.88617587 0.10039067 12629176 -0.16873656 0.1208228 0.97822791 0.012528162
1.7554832 -0.88631535 0.10022062 12691627 -0.15644197 0.029002531 0.98726124 0.0023445138
1.7774932 -0.88593012 0.10346445 10851215 -0.047628794 0.030758681 0.99839145 0.0072163367
1.7873503 -0.88992196 0.10448775 10256762 -0.11464331 0.044355184 0.99241602 0.0038625796
1.8199878 -0.88600409 0.10189897 10453630 -0.075464457 0.0037595695 0.99714142 0.0022241285
1.8812053 -0.88997447 0.10554099 8810090 -0.084819868 0.0046576411 0.99638546 0.0059119659
1.7145883 -0.87688744 0.10273331 11048337 -0.035171453 0.29199535 0.95577282 0.029608684
1.7875251 -0.87598306 0.10533473 10585727 -0.13253804 0.022107342 0.99093139 0.0032796529
1.8661606 -0.87560755 0.10813224 9467763 -0.076558143 -0.019009532 0.99688387 0.0025210734
1.7676839 -0.86745059 0.1055944 10982801 -0.074894905 -0.018518554 0.99701953 0.0024959652
1.7979993 -0.86517286 0.1041998 10849416 -0.10017505 -0.0017593061 0.9949683 0.0028887258
1.865362 -0.86337936 0.10793987 9599349 -0.072044142 0.022717925 0.99714267 0.003568897
1.8856201 -0.86061138 0.10454792 9599610 -0.050720006 0.060822137 0.99685919 0.0051161023
1.744579 -0.85768139 0.10003304 13020593 -0.079502225 0.032463364 0.99630594 0.00272479
1.8087802 -0.85453498 0.10375805 11177354 -0.099104881 0.012302089 0.99500096 0.0033724434
1.8881249 -0.85494626 0.1042574 9861751 -0.17779443 -0.028674077 0.98364985 0.0035481327
1.9078987 -0.85525864 0.10133839 10059383 -0.067797504 0.039765511 0.99690628 0.0042761303
1.7102842 -0.84146082 0.10036194 12759994 -0.15509909 0.031382099 0.98740035 0.0029609329
1.8080771 -0.84290278 0.10398892 11177613 -0.094979763 0.038395043 0.99473852 0.0037336727
1.767923 -0.83984494 0.10698906 11113878 -0.072074383 -0.019775409 0.99720323 0.0027702912
1.8098673 -0.83757186 0.10453609 11702931 -0.076241232 0.01250942 0.99701095 0.0043147006
1.8775706 -0.8353616 0.10650969 9927543 -0.15658498 0.0025602374 0.98766118 0.0045792931
1.8859872 -0.83133435 0.10632694 10255487 -0.075583309 0.068160683 0.99480724 0.0044005276
1.758111 -0.82166952 0.10910368 11114389 -0.087743901 0.01643998 0.99600744 0.0036293475
1.7870331 -0.82040238 0.10569817 11245973 -0.070634767 0.011585787 0.99743497 0.0021414945
1.798239 -0.82451957 0.10678399 11178129 -0.086550564 0.055406921 0.99470556 0.0027613812
1.7194397 -0.81869239 0.10036829 12496820 -0.15412045 0.015621014 0.98792863 0.0029630696
1.7467425 -0.81149369 0.10301581 13021876 -0.1150249 -0.0015663301 0.99336141 0.0078115501
1.7895566 -0.81431645 0.10884202 11573400 -0.11091357 0.040431123 0.99300736 0.0079959324
1.8084304 -0.81472075 0.10570142 11375760 -0.046995163 0.075286612 0.99605393 0.0033610293
1.8670141 -0.81594455 0.10876024 10125443 -0.099210419 -0.013002939 0.99498153 0.0035117129
1.8761258 -0.8126272 0.10907036 9862267 -0.057752255 0.025098221 0.99801546 0.0056028096
1.7195562 -0.80523956 0.10104793 12497849 -0.14874044 -0.044892613 0.98785675 0.0039452263
1.7566948 -0.80162019 0.10111213 13086902 -0.1098716 -0.064078115 0.99187815 0.010097159
1.8005106 -0.80447215 0.10681838 11769748 -0.10831772 0.026296725 0.99376845 0.0076250848
1.8286407 -0.80890989 0.10269859 11507346 -0.053943098 0.06066798 0.99669939 0.0023789478
1.8672274 -0.80102879 0.10891724 10191996 -0.11386528 -0.042441346 0.99258929 0.0041880747
1.8974049 -0.80644923 0.10607168 10257025 -0.11298141 -0.013767 0.99350172 0.0066584619
1.7663472 -0.79793489 0.10472579 12232872 -0.098759301 0.01831658 0.99494278 0.0043376889
1.7972081 -0.79665178 0.10570174 11312284 -0.075904556 -0.004393064 0.99710542 0.0027037922
1.8138437 -0.79241168 0.10430023 11047570 -0.081897601 0.011011172 0.99657995 0.0049528964
1.8388369 -0.79873085 0.10163918 11310998 -0.053166244 0.041020688 0.99774283 0.0029245655
1.9086411 -0.79603529 0.10493708 9993085 -0.10579027 -0.014286095 0.99428582 0.00679497
1.7645857 -0.78363901 0.10120878 12166842 -0.11332674 0.036115933 0.99290115 0.0056878505
1.9198793 -0.78545409 0.10381263 9203050 -0.10435487 -0.026153035 0.99419618 0.0062903655
1.7377573 -0.77233368 0.10042256 12430249 -0.099371865 -0.030720582 0.99457604 0.0034409359
1.774749 -0.77390403 0.10005108 11835543 -0.098208696 0.020410113 0.99495655 0.0032846238
1.8173205 -0.77658886 0.10432249 10982284 -0.057913288 -0.010744251 0.99826378 0.0028069785
1.8502176 -0.7743957 0.10127217 11835540 -0.072604924 0.0028783306 0.99735665 0.0033830449
1.8676542 -0.77119732 0.10923123 10651007 -0.15239589 -0.059644178 0.98651814 0.0026389444
1.8216573 -0.76929873 0.10312739 12493213 -0.060599342 -0.04927922 0.99694502 0.0060513774
1.8075079 -0.75849724 0.10643291 11772571 -0.093654856 -0.018858451 0.99542612 0.0024844047
1.8393755 -0.75577348 0.10424951 12230301 -0.08238665 -0.0076044393 0.99657148 0.0030137603
1.8678676 -0.75628155 0.10938823 11177353 -0.1516884 -0.060965504 0.98654646 0.0037006624
1.6970887 -0.74991989 0.10006309 14336971 -0.16249916 -0.056018475 0.98511726 0.0050795656
1.7021693 -0.74411267 0.10642385 13219767 -0.17413557 -0.0097505972 0.98467344 0.006448227
1.7477466 -0.74129522 0.10375473 13546939 -0.084985547 -0.068431757 0.99402946 0.008799783
1.7976938 -0.74055779 0.10853559 11641501 -0.097843334 -0.017212596 0.99505299 0.0023549192
1.8505788 -0.74559015 0.10302258 12164256 -0.097311348 -0.046381414 0.99417269 0.0017926506
1.8981433 -0.74756056 0.10965005 10848133 -0.11886093 -0.068885252 0.99051857 0.0031903298
1.7201387 -0.73797548 0.10444611 12694451 -0.14782606 -0.0021046998 0.98901117 0.006613777
1.8113197 -0.73604125 0.1056048 12494248 -0.088242255 -0.066628084 0.99386823 0.0050425474
1.8607817 -0.73487115 0.10199592 12296357 -0.12656587 -0.042225048 0.99105912 0.0024451271
1.9093837 -0.73681206 0.10853577 10913926 -0.12171999 -0.064940363 0.99043787 0.0029836334
1.7202553 -0.72452265 0.10512576 12628404 -0.14314039 0.020372355 0.98949271 0.0073221819
1.7381904 -0.72347027 0.10594997 13416120 -0.11144372 -0.0092081921 0.9937281 0.009742707
1.7844392 -0.72180176 0.10164279 13021111 -0.075230509 0.0029503405 0.99716187 0.0019418451
1.7978153 -0.72653431 0.10924405 11575710 -0.10135664 -0.023522772 0.99457204 0.0019877113
1.7292999 -0.71452218 0.10448706 12694197 -0.12372983 0.011333145 0.99225122 0.0073567792
1.7481483 -0.71321589 0.10405028 13547453 -0.12554453 0.072252445 0.98945349 0.0032843326
1.7946092 -0.71154201 0.100517 13152695 -0.095247999 -0.027018134 0.99508685 0.0015884843
1.8048115 -0.71705067 0.10814971 12100516 -0.090576246 -0.014824333 0.99577916 0.0034296096
1.8509399 -0.7167846 0.10477293 12230819 -0.10746641 -0.045870934 0.99314994 0.0010176105
1.7472746 -0.70776874 0.10254049 12694199 -0.091696918 0.021795262 0.99554843 0.0039126603
1.7678674 -0.70644194 0.1001063 13613246 -0.12231191 0.027445242 0.99211216 0.0051498939
1.8049757 -0.7027868 0.10858178 12232359 -0.095757164 -0.0044442038 0.99539483 0.0029379795
1.8511205 -0.70238185 0.1056481 12231076 -0.10501876 -0.039180346 0.99369812 0.0008136782
1.7384635 -0.690795 0.1045419 12759990 -0.10375577 0.035995834 0.9939512 0.0041509038
1.7680705 -0.69224995 0.10025567 13482175 -0.13824892 0.03230647 0.98987049 0.0047723856
1.7947849 -0.69752711 0.10136864 13151927 -0.098966554 -0.030992581 0.99460799 0.0017637329
1.7564412 -0.68369913 0.10261261 12694197 -0.10012976 0.022278251 0.99472493 0.0028808345
1.7949606 -0.68351209 0.10222027 13152181 -0.11158034 -0.035176054 0.99313271 0.0013152171
1.8021618 -0.68904656 0.1080333 12757937 -0.10751582 -0.0039162715 0.9941957 0.0042758146
1.8513011 -0.68797904 0.10652328 12165026 -0.097984403 -0.053809032 0.99373221 0.00064986519
1.7585121 -0.67457736 0.10244936 13547455 -0.13658132 0.0080410372 0.99059623 0.003145146
1.7664828 -0.67350399 0.10185665 12562611 -0.09219557 0.012632139 0.99566084 0.002140902
1.8037512 -0.67378324 0.10464905 12954802 -0.12611799 -0.037210707 0.99131715 0.001278222
1.8181798 -0.6773591 0.1093356 11641762 -0.11371764 0.014275418 0.99341059 0.00087976689
1.8514816 -0.67357624 0.10739845 12230819 -0.097665936 -0.062287591 0.99326819 0.00050920254
1.7684765 -0.6638658 0.10055447 13547453 -0.14254887 -0.012784755 0.98970526 0.0019974201
1.8282429 -0.66656685 0.10868448 11707042 -0.10683906 0.016695425 0.99413615 0.00096122967
1.795312 -0.65548229 0.10392347 13085875 -0.12090427 -0.059025839 0.99090779 0.00086431089
1.8283663 -0.65231508 0.1094045 11707296 -0.10709429 0.0073217237 0.99422193 0.00080638792
1.8516622 -0.65917343 0.10827368 12230049 -0.10091556 -0.049506061 0.99366254 0.00052262313
1.7298853 -0.64691567 0.10790259 12496561 -0.096022591 0.0084012337 0.99534374 0.0027445089
1.7589159 -0.64634562 0.10274649 13481662 -0.14251266 -0.0073703974 0.98976558 0.0017613822
1.766722 -0.64589834 0.10325128 12562354 -0.097970076 0.013295942 0.99510056 0.0019529142
1.7954878 -0.64146727 0.1047751 13085873 -0.11414406 -0.069104142 0.99105793 0.0010221467
1.8518428 -0.64477068 0.10914886 12361636 -0.095315225 -0.034640472 0.99484426 0.00089386239
1.7591178 -0.63222975 0.10289508 13350589 -0.15219834 0.02225225 0.98809946 0.0015460545
1.7668414 -0.63209546 0.10394865 12497072 -0.099755034 0.020455115 0.99480176 0.0018364192
1.8029873 -0.63133371 0.10864079 12954800 -0.14388724 0.0042637778 0.98958486 0.0010811089
1.7956635 -0.62745231 0.10562673 13086386 -0.10259745 -0.055802025 0.99315655 0.0016843053
1.7427551 -0.61114687 0.10222372 13416382 -0.10844228 -0.055235334 0.99256706 0.0021004644
1.7593198 -0.61811388 0.10304368 13481662 -0.15616843 0.01591558 0.98760223 0.0016584592
1.766961 -0.61829269 0.10464597 12496559 -0.10456431 -0.0069883391 0.9944936 0.0017865524
1.8045174 -0.61674488 0.1066653 12954800 -0.12496876 -0.0083392747 0.99212563 0.0012705497
1.7595217 -0.60399801 0.10319221 13481662 -0.1509259 0.0040020999 0.98853701 0.0013295936
1.7770067 -0.60764098 0.10391307 12562354 -0.11148321 -0.020843718 0.99354774 0.0026783647
1.8034002 -0.60247737 0.10894454 13020593 -0.1288307 0.031527884 0.99116534 0.0009414482
1.8624153 -0.60456175 0.10991415 12427943 -0.11347997 0.0032760799 0.99353492 0.00092208589
1.7429261 -0.59749693 0.10305318 13481664 -0.1015242 -0.047903739 0.99367911 0.0019856482
1.7694916 -0.59290564 0.10130137 13481662 -0.14366722 0.024759714 0.98931628 0.0011822738
1.777127 -0.59376204 0.10461426 12496561 -0.12465622 -0.047360126 0.99106908 0.0011751492
1.7960149 -0.5994224 0.10732999 13217459 -0.085513026 -0.0065617636 0.99631548 0.0016584431
1.8736322 -0.59329855 0.10875285 12559015 -0.10614997 -0.0038367063 0.9943428 0.0013011068
1.7520752 -0.5866065 0.10207653 13612480 -0.10105789 -0.030921526 0.99439996 0.0016516976
1.8049004 -0.5882256 0.10767339 13020595 -0.10042119 0.020533938 0.9947331 0.00097501522
1.765959 -0.5772959 0.10117935 13481663 -0.1096054 0.011929313 0.99390364 0.0014905771
1.7772472 -0.5798831 0.10531545 12430766 -0.12469631 -0.040005032 0.9913882 0.0011965557
1.803813 -0.57362092 0.10924828 13020341 -0.13414124 0.0039712652 0.99095428 0.0010640422
1.8163757 -0.57722986 0.10518008 13020082 -0.07536599 0.016188025 0.9970246 0.0007342812
1.8738148 -0.57873613 0.10963768 12624808 -0.11308345 0.0084132887 0.99354988 0.0013719343
1.7188517 -0.56239986 0.10012352 12958139 -0.1352237 -0.025629239 0.99048358 0.00092605129
1.7637833 -0.56236589 0.10553661 12956600 -0.14448993 -0.015204907 0.98938948 0.0022959204
1.8065476 -0.56022006 0.10796288 13020082 -0.078394651 0.00090037659 0.99692208 0.0013548322
1.8138095 -0.56198859 0.10743684 12955318 -0.12938806 -0.009293193 0.99155051 0.0011521063
1.7774875 -0.55212522 0.10671777 12431279 -0.14976141 -0.038889512 0.98795706 0.0021344593
1.8267375 -0.55166245 0.10498446 13085875 -0.079353243 -0.0033285804 0.99684107 0.0014793081
1.7189682 -0.54894704 0.10080317 12892346 -0.13711205 -0.0296747 0.99011099 0.00097073335
1.7614493 -0.54791188 0.10318549 13481664 -0.11596205 0.0092745349 0.99321038 0.0022443375
1.8140169 -0.54748428 0.10758951 12955318 -0.12839369 -0.016514713 0.99158579 0.0010249633
1.7190847 -0.53549415 0.10148281 12892348 -0.13629963 -0.039741814 0.98987019 0.001050785
1.7652103 -0.5349853 0.10612623 12890550 -0.12038989 -0.0081380997 0.99269331 0.0019479465
1.7703036 -0.5361374 0.10189891 13481664 -0.14145057 -0.0025905501 0.98994195 0.0028509113
1.8142245 -0.53297985 0.10774216 13021111 -0.11690963 0.0042139352 0.9931336 0.0016356762
1.8269161 -0.53741932 0.10584992 12954802 -0.079753071 -0.0076102838 0.99678564 0.0013486063
1.7281233 -0.52453148 0.10082561 12957371 -0.12689292 -0.034878895 0.99130303 0.0012734559
1.7653565 -0.52118671 0.10689403 12825015 -0.11733654 -0.013741887 0.99299711 0.0019862261
1.8270946 -0.52317625 0.10671544 12954802 -0.081324734 0.004272752 0.99667853 0.0012849118
1.7371634 -0.51343179 0.10017526 12892348 -0.12755565 -0.027816622 0.99144131 0.0014187902
1.7607332 -0.51930279 0.10408372 13481664 -0.13875012 -0.017807575 0.99016732 0.0028313715
1.7867857 -0.51284516 0.10755831 12365486 -0.1569318 0.0019074492 0.98760766 0.0023295169
1.8046385 -0.51590812 0.10985571 13151927 -0.13200986 0.0040728138 0.99124008 0.0012187357
1.8372825 -0.51147157 0.10567743 13020341 -0.098989226 -0.0059819189 0.99507052 0.0012837159
1.7609352 -0.50518686 0.10423231 13613250 -0.13893276 -0.01429028 0.99019873 0.0028059054
1.7730695 -0.50951594 0.10312 13219005 -0.0749484 -0.0050630979 0.99717456 0.0017436184
1.7194341 -0.49513569 0.10352173 12826553 -0.12066109 -0.033731908 0.9921205 0.001551982
1.772078 -0.49460334 0.10315491 13350334 -0.10166448 -0.01640431 0.99468344 0.0020316199
1.7869066 -0.49889776 0.10826293 12365486 -0.15666755 0.013970201 0.98755264 0.0020443082
1.8374621 -0.49715242 0.10654753 13085877 -0.09862718 -0.018353235 0.99495524 0.0010903343
1.7195507 -0.48168293 0.10420135 12760760 -0.099841505 -0.024717754 0.99469626 0.0016971349
1.7214721 -0.48290923 0.10063121 13745095 -0.12341085 -0.019987147 0.99215442 0.0016760438
1.7734172 -0.48177502 0.10480568 13349824 -0.079273522 -0.038305592 0.9961167 0.001821278
1.8376416 -0.48283333 0.10741764 12954548 -0.094903886 -0.0079748183 0.99545449 0.0011436862
1.7711157 -0.47936916 0.10249645 13547455 -0.12727799 -0.0094363745 0.99182218 0.0023189443
1.7871481 -0.47100285 0.10967219 12365232 -0.14361279 0.003348127 0.98962831 0.0021275007
1.7925608 -0.47242978 0.10191467 13349824 -0.069618434 -0.032659806 0.9970389 0.0009544635
1.8150544 -0.47496244 0.10835284 13152697 -0.12131045 0.005526057 0.99259925 0.0021877696
1.7196672 -0.4682301 0.10488099 12891578 -0.087379679 -0.019530725 0.9959836 0.0011615477
1.7713187 -0.46517715 0.10264581 13547457 -0.10740592 0.0098892171 0.99416608 0.0017337854
1.8152618 -0.46045801 0.10850552 13086906 -0.12517673 -0.0029381677 0.9921301 0.0023767641
1.8378211 -0.4685142 0.10828775 12954548 -0.090337038 -0.011207946 0.99584824 0.001390186
1.7342031 -0.45854756 0.10168119 13154237 -0.11816773 -0.016052581 0.99286389 0.00098881428
1.7715217 -0.45098507 0.10279518 13547457 -0.096991464 0.019200901 0.99510002 0.0013082592
1.7827514 -0.45610911 0.10472685 13218490 -0.082261384 -0.007791914 0.99658036 0.001731956
1.8380007 -0.45419508 0.10915786 12954548 -0.085251033 -0.017264653 0.99620992 0.0012664098
1.7343471 -0.44496191 0.10243709 13088444 -0.11793153 0.0084204264 0.99298608 0.0010884828
1.7739389 -0.44016355 0.10733417 13218492 -0.089447737 -0.00025115907 0.99599153 0.0016586359
1.7973237 -0.44534612 0.1096974 12364721 -0.12327924 0.010602225 0.99231541 0.0016417023
1.8262483 -0.44835886 0.10650554 13152697 -0.13566951 -0.027224876 0.99038005 0.002997481
1.7400755 -0.43286195 0.10026717 13481410 -0.1342604 0.026382212 0.99059486 0.001358818
1.7717248 -0.436793 0.10294455 13481664 -0.096154481 -0.010307964 0.99531305 0.0014821991
1.826457 -0.43377069 0.10665911 13152697 -0.15245906 -0.022240704 0.98805952 0.0030983211
1.728943 -0.42988238 0.10560727 12759992 -0.10325643 -0.0055882973 0.9946391 0.00068981864
1.749639 -0.42969474 0.10453443 12233389 -0.093132362 0.020031473 0.99545223 0.0040513454
1.7677935 -0.42005652 0.10348821 12233646 -0.13494569 0.013734507 0.99075782 0.0017237284
1.7730203 -0.42444706 0.10563551 13284286 -0.097970143 -0.0047839638 0.99517787 0.0015835543
1.8493764 -0.42784724 0.10883474 12954802 -0.08540114 -0.01309468 0.99626058 0.00095504371
1.7379872 -0.4183034 0.10498118 12759992 -0.10729125 0.0023931153 0.99422479 0.00054845383
1.7402465 -0.41921204 0.10109663 13547203 -0.13896853 0.040176895 0.98948151 0.0013068242
1.7832756 -0.4142924 0.10726786 13218492 -0.085054338 0.0078516193 0.9963454 0.0017727104
1.849557 -0.4134444 0.10970992 12888755 -0.089370042 -0.023753785 0.99571526 0.0011000324
1.7381049 -0.40471363 0.10566777 12694199 -0.091877609 0.0025843419 0.995767 0.0008766703
1.7493823 -0.40742773 0.10011017 13481923 -0.13835013 0.046486702 0.98929179 0.00088610634
1.7680405 -0.40638292 0.10359471 12299439 -0.13494593 0.01373662 0.99075776 0.0017237032
1.7721308 -0.40840891 0.10324335 13482177 -0.10701952 -0.022801979 0.99399543 0.0016117917
1.7934391 -0.40235502 0.10617277 13218492 -0.09456569 0.012328077 0.99544227 0.0014186914
1.8597546 -0.4009718 0.10871863 12888757 -0.10073403 -0.038881328 0.99415338 0.0012800001
1.6728812 -0.39092556 0.10198474 12957373 -0.13815939 -0.022001093 0.99016559 0.0010887418
1.7021744 -0.39439496 0.10380524 13613510 -0.12140252 -0.055276413 0.99106306 0.0049901525
1.7471508 -0.39292911 0.10505205 12759994 -0.094932064 0.0011511631 0.9954831 0.00068295537
1.7821169 -0.39617392 0.10136443 13350591 -0.1369967 -0.031308863 0.9900766 0.0026565359
1.7503728 -0.38908544 0.10485072 12167855 -0.15411539 0.013532992 0.98796022 0.0016993302
1.7725369 -0.38002485 0.10354209 13416130 -0.10798801 -0.0022871997 0.99414957 0.002261057
1.7936149 -0.38834006 0.10702434 13086906 -0.098669961 0.0060469722 0.99510181 0.0019543557
1.8162993 -0.38793615 0.10926887 13087417 -0.14243603 -0.023146397 0.98953336 0.0036888127
1.859936 -0.38649297 0.1095984 12888757 -0.087632895 -0.035351336 0.99552542 0.0015262133
1.6729949 -0.37781516 0.1026471 12760508 -0.13407603 -0.013756841 0.99087554 0.001193604
1.6935825 -0.37896064 0.10584095 13614023 -0.096742868 -0.046043128 0.99424386 0.0058659664
1.7484976 -0.37963086 0.10375974 13022141 -0.11681074 0.0077398471 0.99312401 0.0013730959
1.7595762 -0.37729245 0.10438193 12233648 -0.14073844 0.01511206 0.98993152 0.0017421384
1.8037814 -0.37617454 0.10594311 13086906 -0.097628787 -0.027168885 0.99485195 0.0026098003
1.8165067 -0.37343171 0.10942155 13086904 -0.13139012 0.012016627 0.99125791 0.0034670101
1.682023 -0.36643809 0.10194367 12694717 -0.10992233 -0.012031071 0.9938674 0.0011647266
1.7113543 -0.36873868 0.10220209 13613510 -0.057329111 -0.016743876 0.99821496 0.0033330065
1.7473873 -0.3656126 0.10643211 12562615 -0.087079391 0.0025884509 0.996198 0.00046100991
1.7553618 -0.36506492 0.10283439 12758711 -0.15679584 -0.00016878742 0.98763108 0.0018558381
1.7727399 -0.36583284 0.10369146 13350591 -0.10616441 0.01188466 0.9942776 0.0025894966
1.8039581 -0.36208355 0.10679933 12955066 -0.11181593 -0.044523358 0.99273109 0.0016099012
1.6910522 -0.35492402 0.10124716 12694717 -0.0993471 -0.005411122 0.99503815 0.0011403315
1.7213169 -0.35679963 0.10024634 13613509 -0.056942418 0.0055177957 0.99836224 0.0022975716
1.7564355 -0.35355416 0.10583025 12365750 -0.091923684 0.0078281052 0.99573535 0.00051476661
1.7600346 -0.35432288 0.10144541 13284031 -0.14404169 -0.048872795 0.98836404 0.0014981196
1.7729429 -0.35164076 0.10384089 13219005 -0.12026092 -0.0071662082 0.99271643 0.0023757597
1.6822513 -0.34008029 0.10327527 12759994 -0.12849596 0.0099644363 0.99166 0.0011838131
1.7215146 -0.34298089 0.10039181 13416130 -0.047864757 0.021751568 0.99861699 0.0018537652
1.7331845 -0.34526348 0.10631331 12102062 -0.14443935 0.019259896 0.98932624 0.0018726388
1.7633424 -0.34102872 0.1036879 12693433 -0.118533 -0.024488302 0.99264812 0.0010679015
1.8041347 -0.34799254 0.10765556 12889786 -0.12026402 -0.066418916 0.99051762 0.0011345707
1.7731459 -0.33744869 0.10399026 13284544 -0.12164371 -0.017883148 0.99241275 0.0023808808
1.6912817 -0.32842925 0.10258567 12628922 -0.11468954 0.019381184 0.99321234 0.0011460284
1.7535437 -0.32560909 0.10616446 12627640 -0.10452573 -0.035167616 0.99390018 0.0014049447
1.7831374 -0.3248328 0.10211539 13218751 -0.12833521 -0.0026551022 0.99172735 0.0018495431
1.8171293 -0.32991859 0.10987955 12955320 -0.11516976 -0.01888049 0.99316639 0.0023856326
1.7005367 -0.31683248 0.10174289 13022398 -0.098589629 -0.0096703898 0.99508113 0.0015705558
1.7219099 -0.31534335 0.10068271 13481923 -0.053125743 -0.028244587 0.99818832 0.00095612888
1.7536892 -0.31188649 0.10692802 12628150 -0.10432266 -0.024386987 0.99424446 0.0017134316
1.7833415 -0.31056458 0.1022656 13152958 -0.13343219 0.022198701 0.99080932 0.002603689
1.8044881 -0.31981051 0.10936806 12955320 -0.12241805 -0.056565993 0.99086535 0.0017222832
1.7051511 -0.30417764 0.10156034 12891068 -0.10169417 -0.0076449714 0.99478632 0.0017726127
1.7123371 -0.3000257 0.10292533 13416130 -0.063993752 -0.028291263 0.99754924 0.00086975662
