# .PCD v0.7 - Point Cloud Data file format
VERSION 0.7
FIELDS x y z rgb normal_x normal_y normal_z curvature
SIZE 4 4 4 4 4 4 4 4
TYPE F F F U F F F F
COUNT 1 1 1 1 1 1 1 1
WIDTH 528
HEIGHT 1
VIEWPOINT 0 0 0 1 0 0 0
POINTS 528
DATA ascii
1.5750982 0.35926419 0.059811532 9665920 -0.067321166 0.039886452 0.99693376 0.0023182111
1.3921826 0.36197993 0.057064623 10520461 -0.086027898 0.014372812 0.99618906 0.0032801777
1.440371 0.36333609 0.052534997 10519949 -0.069232218 0.0037430588 0.99759358 0.0021216348
1.495507 0.36618927 0.053852677 10455180 -0.10401322 0.014902171 0.99446422 0.0018362708
1.5377564 0.36591634 0.056439787 10388873 -0.094947234 -0.010640243 0.99542546 0.0010356117
1.4053253 0.37712976 0.053966761 10454666 -0.043422256 0.029819328 0.99861175 0.0023821478
1.4444311 0.37576717 0.051862881 10454667 -0.073129132 0.0035518731 0.99731612 0.0015038762
1.4673767 0.37090185 0.051882416 10455436 -0.07718569 0.0027641878 0.99701291 0.0014977864
1.4716145 0.37013897 0.05842188 10520977 -0.1232601 0.010420912 0.9923197 0.001160133
1.488845 0.37645459 0.053211927 10388875 -0.066054054 -0.013183384 0.99772894 0.00067051075
1.5048022 0.37974742 0.054898232 10455435 -0.11663523 0.055512123 0.99162221 0.0037032517
1.5375128 0.37637267 0.057524681 10192264 -0.078549474 0.0025016267 0.99690711 0.0022049977
1.5914414 0.37925255 0.059973359 9796736 -0.092273079 -0.023428639 0.99545807 0.0010667868
1.4450814 0.38721654 0.052134573 10388873 -0.073364802 0.00062352594 0.99730498 0.0013269337
1.473678 0.38333344 0.055036843 10520718 -0.11206718 0.0066300696 0.99367851 0.001738426
1.48965 0.38799983 0.053246558 10454668 -0.068840772 -0.010720116 0.9975701 0.00080260908
1.5323627 0.38777217 0.057686955 10192010 -0.098640725 -0.022033108 0.99487919 0.00097129581
1.5443366 0.38911065 0.057966053 10192264 -0.064795248 0.028549427 0.99749011 0.0023722153
1.3772484 0.39246032 0.051578373 10519946 -0.10384024 0.036572132 0.9939214 0.002841973
1.4126406 0.39065486 0.052532494 10454666 -0.043125391 0.028153695 0.99867296 0.0025688666
1.4726684 0.39386448 0.059455484 10520459 -0.12053514 0.0098585561 0.99266011 0.0013377682
1.4830607 0.39853445 0.050396532 10520459 -0.06968452 -0.0060037822 0.99755102 0.0015142997
1.5101757 0.39887321 0.055436969 10454666 -0.09613739 0.024420336 0.99506849 0.0025376822
1.5331894 0.39962906 0.057722509 10126471 -0.098001011 -0.022034714 0.99494237 0.00085532211
1.3845415 0.40589714 0.050090015 10585739 -0.083550036 0.021758329 0.99626601 0.0024510333
1.4131492 0.40210694 0.053031385 10388875 -0.056522015 0.016335448 0.99826771 0.0021839873
1.4375017 0.40663755 0.051496059 10257287 -0.072960205 0.016068241 0.99720544 0.0012389333
1.4487001 0.40002245 0.054447055 10323850 -0.078373469 0.0082024829 0.99689037 0.0013177623
1.4868853 0.40996778 0.056311011 10257805 -0.11907531 0.012246752 0.99280971 0.0013305809
1.4964995 0.40132064 0.052228808 10388875 -0.069952726 -0.020844886 0.99733251 0.00087036513
1.5532345 0.40370128 0.057136059 10191493 -0.055384114 0.019415118 0.99827635 0.0022906852
1.5939336 0.40126374 0.059335887 10126984 -0.067924663 0.011877909 0.99761975 0.0019044576
1.3841412 0.41545039 0.051361009 9665919 -0.060401678 -0.039433345 0.99739492 0.0038052413
1.4194982 0.41547287 0.051879257 10388875 -0.064679928 -0.0026839564 0.99790245 0.0009009653
1.438279 0.41778755 0.051529497 10256774 -0.079702914 0.0032434156 0.99681342 0.0013248782
1.4454031 0.41101119 0.053066105 10323081 -0.072210364 -0.015221035 0.99727327 0.0017724
1.4779931 0.4199318 0.054066598 10323080 -0.066629887 0.0045669451 0.99776733 0.0013103398
1.4839911 0.41034302 0.051378131 10388873 -0.064316288 0.0047774464 0.99791813 0.001664718
1.4912599 0.41109037 0.053315818 10191494 -0.074290082 -0.025982823 0.99689817 0.00096889131
1.5481403 0.41562733 0.055407286 10060678 -0.085840076 -0.0033254391 0.99630338 0.0008769909
1.3855413 0.42840606 0.051070601 10322822 -0.076589912 -0.0012528785 0.99706191 0.00090554042
1.420009 0.42697066 0.052380174 10257287 -0.079692155 -0.007627964 0.99679041 0.00071158592
1.4490817 0.4235881 0.05304715 10322826 -0.071984306 -0.020400282 0.99719715 0.001676537
1.487417 0.42193696 0.056832433 10192010 -0.10561962 0.025425972 0.9940815 0.0015132455
1.492065 0.42263556 0.053350449 10191494 -0.075647734 -0.026599897 0.99677974 0.0009359612
1.5294325 0.42244297 0.052666157 10388873 -0.093730785 -3.9450828e-05 0.9955976 0.0020849002
1.5348428 0.42334282 0.057793647 9994884 -0.091968648 -0.0071971272 0.99573588 0.00075215602
1.6038717 0.42886806 0.059647053 10061191 -0.06602779 -0.025803633 0.99748415 0.0019882445
1.4089476 0.43467417 0.051331043 10191494 -0.073664173 -0.022826016 0.99702185 0.0021997401
1.4146754 0.43646348 0.054528117 10059907 -0.083027013 0.0036957006 0.99654049 0.00069098274
1.4451051 0.43089628 0.050466269 10059910 -0.09635102 -0.022904346 0.99508387 0.0011688045
1.4502596 0.4351317 0.05597657 10191496 -0.082863756 -0.02697343 0.99619579 0.0012932562
1.4834754 0.43281972 0.056260601 10125959 -0.080766 -0.0021170049 0.99673086 0.0020379238
1.498924 0.43609327 0.052333117 10190981 -0.069269195 -0.030950075 0.99711782 0.0010712902
1.5330291 0.43488833 0.055752009 10191237 -0.099197686 -0.018182823 0.9949016 0.0014978823
1.3963455 0.4492743 0.050806507 8745590 -0.053118713 -0.088107347 0.9946937 0.0050513102
1.4210304 0.44996613 0.05338195 10125701 -0.092176981 -0.010285956 0.99568951 0.0011072913
1.4507794 0.44683477 0.056486428 10059910 -0.093366891 -0.021088488 0.99540842 0.0013014522
1.4816283 0.44359547 0.059698999 10126217 -0.079794049 0.0090252273 0.9967705 0.001902656
1.4937189 0.44809428 0.052624822 10191494 -0.075889856 -0.019177929 0.99693179 0.0022411575
1.5243993 0.44444355 0.056334436 10191494 -0.098017335 -0.035305578 0.99455827 0.0025393928
1.5364963 0.44705659 0.057864755 9994114 -0.073810153 -0.040162392 0.9964633 0.0010921061
1.5640907 0.44315043 0.058372468 9862528 -0.073994882 -0.04910567 0.99604893 0.002407674
1.392374 0.4530136 0.05036518 10257287 -0.067393124 -0.0031777807 0.99772149 0.00057666056
1.4406114 0.45123762 0.051629841 9928324 -0.10694957 -0.025862401 0.99392802 0.0012552592
1.4539946 0.45891228 0.05646953 9402492 -0.076062076 -0.022540504 0.99684829 0.0025670328
1.4882107 0.45638928 0.056539014 9928836 -0.068451822 -0.027959483 0.99726254 0.0011602354
1.4946533 0.45995572 0.053610802 10256774 -0.085997537 -0.01677788 0.99615407 0.0022186227
1.5253512 0.45652458 0.057338685 9994631 -0.10462273 -0.034972094 0.9938969 0.0025307259
1.392876 0.46431363 0.050857455 10059910 -0.051287711 -0.023890473 0.99839813 0.0014610053
1.403098 0.46207806 0.050123736 8679795 -0.034392241 -0.13331307 0.99047709 0.0025448711
1.4151976 0.46610817 0.059735537 8613745 -0.03496981 -0.096581377 0.99471062 0.0026897672
1.4283643 0.46390951 0.051965892 10059908 -0.10054803 0.0010540225 0.9949317 0.0014243239
1.4413888 0.46238768 0.05166328 9928324 -0.1029371 -0.060150634 0.99286753 0.0027366634
1.4650166 0.46325222 0.050024688 10059908 -0.082050517 0.0044377968 0.99661833 0.0023202423
1.482147 0.46437657 0.055767268 9797252 -0.072418652 -0.069674395 0.99493772 0.0020483583
1.5443999 0.46119693 0.056725562 9928321 -0.06732171 -0.057047646 0.99609911 0.001149328
1.3810087 0.4736875 0.052198648 9927809 -0.014819921 -0.039991833 0.99909008 0.002347443
1.3933779 0.47561371 0.051349729 10059910 -0.052526116 -0.029921345 0.99817121 0.0017906104
1.4266751 0.47430611 0.051646471 10059652 -0.065677106 0.013215906 0.99775338 0.0017494999
1.4421662 0.47353768 0.051696718 9862531 -0.10019711 -0.070188798 0.99248886 0.0025149693
1.4518191 0.47024098 0.057506084 9928322 -0.084372617 0.0007098802 0.99643403 0.0023342769
1.4757005 0.47677645 0.054176003 8745077 -0.072512858 -0.038408864 0.99662763 0.0028256797
1.4829451 0.4758231 0.0558016 9731461 -0.072550699 -0.07820718 0.99429375 0.0020974604
1.4959941 0.47200876 0.055847988 10125189 -0.072360814 -0.013335614 0.99728936 0.0017979998
1.5357032 0.47087464 0.05731833 9797507 -0.085516624 -0.040545635 0.99551141 0.0019234035
1.3546333 0.4847635 0.052309632 9927809 -0.081724674 -0.021630626 0.9964202 0.0014215523
1.3817544 0.48438141 0.052230716 9796478 -0.015795322 -0.022109903 0.99963075 0.0023835672
1.3938799 0.4869138 0.051842034 10059395 -0.035581529 -0.058442779 0.99765646 0.0021745791
1.4293904 0.48701143 0.052972317 9928324 -0.08586017 0.0010530987 0.99630666 0.0025584577
1.4429437 0.48468769 0.051730156 9796736 -0.097151995 -0.069725432 0.9928242 0.0028627801
1.4523389 0.48194402 0.058015943 9994115 -0.091869392 -0.0036308807 0.99576449 0.0029805286
1.4752274 0.48693329 0.053645909 9862530 -0.076441996 -0.038851053 0.99631679 0.0024585659
1.4895734 0.48119405 0.057267666 10125188 -0.10879569 -0.013426647 0.99397349 0.00153737
1.4969344 0.48422271 0.057622939 9994115 -0.041015003 -0.0014123955 0.99915755 0.0018091303
1.5365945 0.4828701 0.057840422 9862787 -0.079876877 -0.014216949 0.99670339 0.0017461511
1.3609505 0.49811167 0.051070601 9796478 -0.094424732 -0.06506893 0.99340326 0.0030247173
1.3943818 0.49821383 0.052334309 9927809 -0.037515018 -0.065975465 0.99711579 0.0020987708
1.4437211 0.49583775 0.051763594 9796736 -0.10996909 -0.062061947 0.99199551 0.002756479
1.4528588 0.4936471 0.058525771 9928322 -0.091847785 0.0061247167 0.99575424 0.0032338493
1.4845413 0.49871594 0.055870265 9730943 -0.068248093 -0.01123159 0.9976052 0.0031168195
1.4906069 0.49375236 0.059961081 9994115 -0.041425765 -0.0042975843 0.99913239 0.0017159812
1.5044106 0.4980779 0.054888248 9928322 -0.0898747 -0.0029718429 0.99594867 0.0018633283
1.5339417 0.493644 0.058949679 9665664 -0.078024574 -0.0016373998 0.99695009 0.0013400016
1.5575016 0.49354076 0.058537662 8548209 -0.061540976 -0.0096839294 0.9980576 0.00097527227
1.3890407 0.50718701 0.054502666 9862016 -0.032045841 -0.067211442 0.99722403 0.0021503665
1.4370928 0.50275266 0.052365601 9665664 -0.078813165 -0.025031334 0.99657506 0.0029985532
1.4533786 0.50535023 0.059035629 9862531 -0.096622124 -0.01562399 0.99519855 0.0049576256
1.468688 0.50985044 0.053898185 9862529 -0.095892563 -0.045727585 0.99434084 0.0024605244
1.4747152 0.50079685 0.051202178 9928322 -0.083243623 -0.031021975 0.9960463 0.0020272769
1.4980024 0.5082677 0.058670431 9928324 -0.045523703 -0.020080123 0.99876148 0.0019174765
1.3895407 0.51844144 0.054992974 9796478 -0.034893125 -0.062864728 0.99741191 0.003018725
1.4348092 0.51296377 0.053452447 9730688 -0.076387338 -0.037059594 0.99638927 0.0038973079
1.4400443 0.51221973 0.050365657 9796736 -0.054893244 -0.052867267 0.99709171 0.0023504379
1.4853394 0.51016235 0.055904597 9599357 -0.071394809 -0.030154208 0.99699223 0.0034147259
1.5123068 0.51258302 0.054202616 9862529 -0.074279435 -0.0095806876 0.99719149 0.0019005383
1.544086 0.51027513 0.057865024 9994115 -0.08712928 0.017855465 0.99603701 0.0016165205
1.3677651 0.52266103 0.050319523 9599099 -0.12286273 -0.041896921 0.99153894 0.0040648622
1.383219 0.52687466 0.057434082 9599099 -0.12172926 -0.05828106 0.99085081 0.0038257756
1.4278216 0.52218032 0.0551503 9467519 -0.11589886 -0.029403422 0.99282569 0.0030315588
1.4367882 0.52398884 0.052848846 9796223 -0.044360846 -0.070118085 0.99655187 0.0050912192
1.440946 0.52366489 0.051317066 9665150 -0.08462511 -0.090012401 0.99233884 0.0022252114
1.4675996 0.52236432 0.0558303 9862531 -0.084652372 -0.055551767 0.99486083 0.0064233346
1.4765593 0.52420187 0.053147733 9796736 -0.056141779 -0.048432902 0.9972474 0.0023950236
1.521206 0.5275718 0.05328688 9731713 -0.071087152 -0.033240497 0.99691606 0.0013397289
1.5351839 0.52745205 0.059287518 9599359 -0.077974655 -0.0050152191 0.99694276 0.0024214997
1.552017 0.52505511 0.057254165 9665149 -0.079639345 -0.0030102655 0.99681926 0.0019021085
1.3570806 0.53985703 0.054709733 9532534 -0.11474419 -0.06886337 0.99100536 0.0042114188
1.3624249 0.53130466 0.052516639 9598327 -0.11293149 -0.055544294 0.9920491 0.0045613507
1.4285896 0.53319347 0.055183321 9401980 -0.11320359 -0.040892828 0.99272996 0.0041787121
1.4373033 0.53558546 0.053354055 9796223 -0.041416168 -0.071529135 0.99657834 0.0047518318
1.4418478 0.53511006 0.052268445 9665150 -0.067521662 -0.076194175 0.99480414 0.0016199719
1.4681243 0.53417391 0.056344807 9796225 -0.077113785 -0.056399893 0.99542582 0.0056932652
1.4856871 0.53585732 0.054189697 9468029 -0.057263501 -0.017444633 0.99820668 0.0026428301
1.5141926 0.53651798 0.056192219 9796736 -0.068902835 -0.024929844 0.99731189 0.0014591882
1.5360069 0.53925568 0.059322923 9533566 -0.086413436 -0.00420347 0.99625051 0.0024065338
1.5460075 0.53466427 0.059892386 9730685 -0.072201058 -0.027192317 0.99701935 0.001441822
1.3910506 0.54065418 0.053612366 9269878 -0.08697705 -0.060604692 0.99436522 0.0032821354
1.4091625 0.54577303 0.051288664 9532536 -0.077124387 -0.059243128 0.99525982 0.0033640116
1.4251162 0.54194826 0.05738911 9467771 -0.021571938 -0.083446927 0.99627876 0.004397369
1.4354409 0.5466671 0.054121226 9204599 -0.111864 -0.030359868 0.99325967 0.0040748212
1.4427495 0.54655534 0.053219855 9467771 -0.064545028 -0.042848743 0.99699444 0.0019444571
1.4686488 0.54598343 0.056859255 9599357 -0.065348178 -0.06761273 0.99556929 0.0053170277
1.4784033 0.547607 0.055093318 9599357 -0.044902671 -0.03786752 0.99827343 0.0013045542
1.5009198 0.54963338 0.053731352 9336703 -0.067807861 0.0028272441 0.99769443 0.0030096634
1.5151355 0.54848552 0.057187021 9730943 -0.077101603 -0.033603959 0.9964568 0.0013451624
1.5474099 0.54867172 0.059738636 9796735 -0.10113735 -0.040316973 0.99405521 0.0032587156
1.5539469 0.54955024 0.05929032 9665149 -0.059680983 -0.050884947 0.99691975 0.00097940909
1.3310333 0.55208886 0.052297235 9269362 -0.034210116 -0.078339674 0.99633956 0.0020037382
1.3692456 0.55599082 0.051771522 9270132 -0.11078942 -0.069116317 0.99143773 0.0050604329
1.3946006 0.55290592 0.053039536 9270133 -0.08141271 -0.064166382 0.99461287 0.0031629382
1.4100451 0.55697596 0.052219927 9466743 -0.063966021 -0.033247337 0.99739808 0.0031116232
1.425627 0.55344605 0.057890028 9467770 -0.014462084 -0.0913876 0.99571043 0.0033897376
1.4436512 0.5580005 0.054171234 9335672 -0.059852049 -0.040617831 0.99738061 0.0027797837
1.4690223 0.55919576 0.059577286 9138805 -0.033738792 -0.0033736201 0.99942499 0.0038626955
1.4793254 0.55930948 0.056066096 9533563 -0.04493086 -0.035218038 0.99836916 0.00130762
1.6028301 0.55376041 0.059650958 9138548 -0.0813796 -0.025807241 0.99634904 0.0014139162
1.300233 0.56132054 0.051687449 9400950 -0.099873014 -0.036482602 0.99433118 0.0021265266
1.3315147 0.5629251 0.052769303 9400948 -0.036352664 -0.076551467 0.99640274 0.0022237429
1.3697391 0.56710076 0.052255541 9335409 -0.10589812 -0.06310349 0.99237269 0.004779404
1.3847117 0.56047827 0.058898002 9270134 -0.081728935 -0.054064624 0.99518716 0.0037093861
1.3991427 0.56443524 0.050175935 8940397 -0.092832692 -0.042447343 0.99477655 0.0024233204
1.4369831 0.56878465 0.054187566 8809581 -0.072789691 -0.029962597 0.99689716 0.0020718779
1.4422988 0.56023186 0.05305931 8875633 -0.084191933 -0.010351027 0.99639577 0.0036892914
1.5078139 0.56359267 0.05271554 9270908 -0.050294403 -0.028440237 0.99832946 0.0047867787
1.5160784 0.56045294 0.058181822 9599357 -0.077754661 -0.039346516 0.99619579 0.0015694818
1.3007045 0.57193625 0.052149922 9204341 -0.090018064 -0.039919883 0.99513978 0.0020138966
1.331996 0.57376122 0.053241402 9335157 -0.043592248 -0.060732361 0.9972018 0.0020664514
1.3643907 0.57556188 0.054444671 9138546 -0.084927946 -0.05056598 0.99510324 0.0043597585
1.3852092 0.57167947 0.059385985 9400948 -0.082429923 -0.025179369 0.99627876 0.0036413965
1.3938073 0.57257694 0.051347792 8875374 -0.086751081 -0.028451717 0.99582368 0.0024479397
1.4168875 0.57077634 0.051612228 9400948 -0.056035731 -0.057996806 0.9967429 0.0037027132
1.4266484 0.57644159 0.058891803 9466743 -0.03134045 -0.049307548 0.99829185 0.0030901416
1.4377542 0.57984352 0.054220736 9071473 -0.079344027 -0.01680138 0.99670571 0.0020188815
1.4515144 0.57241774 0.05337435 9269879 -0.036295477 -0.051210236 0.99802816 0.0039687343
1.4830167 0.57591832 0.057335794 8941680 -0.063272864 -0.055813272 0.99643439 0.0039452948
1.4941872 0.57683975 0.053636491 9401718 -0.039239693 -0.042501561 0.99832553 0.0021274646
1.5170213 0.57242042 0.059176624 9467770 -0.079783604 -0.02406054 0.99652183 0.0015273313
1.3324773 0.58459747 0.053713471 9203571 -0.055328757 -0.047995377 0.99731398 0.0021857007
1.3648822 0.58662623 0.054926693 9269362 -0.090586096 -0.03396666 0.99530923 0.003461445
1.3870859 0.58175409 0.05619669 8941423 -0.088213384 -0.038445245 0.99535936 0.0029760874
1.41414 0.58033109 0.058632404 8874606 -0.091923259 -0.024838524 0.99545628 0.0025449423
1.4271591 0.58793938 0.05939272 9269364 -0.02867675 -0.018752692 0.99941283 0.0019910629
1.4524202 0.58391595 0.05433014 9335157 -0.048098758 -0.072573364 0.99620259 0.0050775893
1.4951175 0.58864832 0.05461809 9138546 -0.02727294 -0.060504787 0.99779528 0.0025739241
1.5259444 0.58771193 0.058286101 9270132 -0.043749467 -0.035246149 0.9984206 0.0024488794
1.5392989 0.58647043 0.059464544 9072755 -0.094770566 -0.036599565 0.9948262 0.0049618087
1.3096536 0.59183621 0.050315768 9204084 -0.076081365 -0.0081012174 0.9970687 0.0020400435
1.3329587 0.59543359 0.054185539 9203571 -0.059551183 -0.01514597 0.99811035 0.0018635215
1.3494229 0.59761947 0.052369654 9071724 -0.062269453 -0.10180894 0.99285322 0.0047810911
1.3653737 0.59769052 0.055408716 9137776 -0.096632332 -0.03285661 0.99477768 0.0034425929
1.3854123 0.59418088 0.0527444 8940908 -0.037573364 -0.058850281 0.99755949 0.0028533246
1.4323925 0.59918523 0.052772909 8940653 -0.08249297 -0.044436686 0.99560052 0.0032614556
1.4533261 0.5954141 0.055285931 9203569 -0.042625878 -0.071649931 0.99651861 0.0053756912
1.4890697 0.59743702 0.057292044 9071985 -0.017639324 -0.064047553 0.99779093 0.0025845657
1.490926 0.59028745 0.056144923 9006190 -0.058260217 -0.048020191 0.99714583 0.0043285964
1.2777036 0.60424954 0.050687253 8809840 -0.077529706 -0.030376004 0.99652725 0.0030653351
1.3079402 0.60666531 0.051756233 9072755 -0.066793777 -0.009975818 0.99771696 0.0025246763
1.3197739 0.6060164 0.051660419 8875372 -0.12830316 -0.048902526 0.99052858 0.0076753958
1.3334401 0.60626984 0.054657608 8941169 -0.075312555 0.0053456686 0.99714571 0.001757323
1.3947968 0.60663629 0.055179864 8809581 -0.074019805 -0.021213971 0.99703109 0.0022010603
1.4195462 0.60452145 0.054417342 9072237 -0.050776094 -0.073991328 0.99596548 0.0043800673
1.4412805 0.6010974 0.059464037 9006190 -0.08200638 -0.055036232 0.99511105 0.0045628003
1.4747744 0.60602337 0.059047341 8874606 -0.074041434 -0.039660905 0.99646622 0.0033600591
1.4917241 0.60173392 0.056179255 8808813 -0.052524507 -0.042548284 0.99771279 0.0040947017
1.5338788 0.60270154 0.057640702 9137778 -0.056058515 -0.027456442 0.99804991 0.0021024176
1.573796 0.60517639 0.059709847 8941426 -0.073954657 -0.02886565 0.99684381 0.0019428462
1.2490128 0.61212361 0.050136328 8809581 -0.10102181 -0.0067020515 0.99486166 0.0032841079
1.2781677 0.61469799 0.051142454 8809583 -0.086500078 -0.0082008839 0.99621809 0.0036754019
1.3084139 0.61732662 0.052220672 8809581 -0.069254421 -0.013863808 0.99750268 0.0025520998
1.3265585 0.61951238 0.050893843 8678504 -0.11445279 0.00596641 0.99341083 0.0086285211
1.3394737 0.61661935 0.055374324 8809323 -0.083125427 -0.026035633 0.99619889 0.0037485261
1.3454393 0.61287284 0.050835669 8677477 -0.05874449 -0.0080848783 0.99824029 0.0021203544
1.3562285 0.61123973 0.051657915 9005931 -0.044834271 -0.056997135 0.99736714 0.004707458
1.3663566 0.61981916 0.056372732 9006190 -0.087479599 -0.012512424 0.99608773 0.0018470959
1.371713 0.61154056 0.05419153 9006960 -0.092247784 -0.020832563 0.99551821 0.0026024829
1.387796 0.61352295 0.05343014 9006442 -0.0090117604 -0.072415024 0.99733388 0.003027142
1.3940399 0.61973125 0.059405625 9006190 -0.059038524 -0.0098208534 0.99820739 0.0016123244
1.4029027 0.61836123 0.050337702 8480616 -0.073429294 -0.017080827 0.99715418 0.002489151
1.4144584 0.61299074 0.056876242 9006444 -0.054428849 -0.069407187 0.99610251 0.0044397134
1.4286267 0.61851948 0.05654183 8480616 -0.081827648 0.010392385 0.99659234 0.0017282385
1.4339647 0.61028594 0.055414557 8546409 -0.083126277 -0.00080692396 0.99653876 0.0019270726
1.4729598 0.61566794 0.059746683 8480614 -0.080585845 -0.020288775 0.99654114 0.0026753577
1.4969783 0.61226529 0.056581289 8940399 -0.026637839 -0.058683004 0.99792117 0.0027504368
1.5348307 0.61478257 0.05864495 9071985 -0.05187574 -0.02822312 0.99825466 0.0024560976
1.2786318 0.62514633 0.051597625 8612461 -0.076879181 0.022620311 0.99678379 0.0030852815
1.3609961 0.62800658 0.058549941 8809581 -0.10149951 -0.0042350707 0.99482661 0.0018730997
1.3886638 0.62453669 0.054345667 8809579 -0.035297725 -0.046639647 0.99828798 0.0018651074
1.4283438 0.62966496 0.055671036 8677737 -0.070366845 -0.027067369 0.99715388 0.0030209816
1.456044 0.62990856 0.058153301 8940651 -0.057650581 -0.05353269 0.99690056 0.0042677447
1.4737473 0.62696236 0.059780568 8611434 -0.074450865 -0.024371777 0.99692684 0.002547205
1.548897 0.62490976 0.058398217 8546409 -0.071987696 -0.010349132 0.99735183 0.0036037983
1.5817702 0.6205014 0.059144258 8480616 -0.085248955 -0.034432296 0.99576455 0.0028812937
1.2839406 0.63815063 0.050539374 8546922 -0.052129004 0.026056351 0.99830037 0.0024852282
1.3402413 0.63086736 0.053865612 8809581 -0.085199028 -0.01009595 0.9963128 0.0020536266
1.3895316 0.63555038 0.055261165 8612713 -0.085729122 -0.01581192 0.99619305 0.0015398988
1.4006913 0.63344753 0.054598629 8743273 -0.059990879 -0.01016326 0.99814725 0.0015568365
1.4360605 0.63717449 0.059514165 8809581 -0.051441494 -0.037613723 0.99796748 0.0014066473
1.3098345 0.64931047 0.05361405 8546668 -0.074700177 -0.014047019 0.99710715 0.00271406
1.3441654 0.6428504 0.052634284 8283492 -0.093155764 -0.0036382806 0.99564493 0.0021320777
1.3673222 0.64231586 0.054421261 8546920 -0.08262758 0.007497876 0.99655229 0.0023093058
1.3878474 0.6423223 0.053660631 8479846 -0.054308623 -0.021847339 0.99828517 0.0014853497
1.3963768 0.64952946 0.054623812 8416104 -0.096589066 -0.019792164 0.99512756 0.0014451839
1.400907 0.64511454 0.05873397 8677995 -0.06049687 -0.01185545 0.99809802 0.0013559584
1.4281862 0.64113665 0.055706143 8743786 -0.053157695 -0.04019969 0.99777669 0.0030834086
1.4362684 0.64332563 0.05551365 8611686 -0.093161233 0.0081975125 0.99561733 0.0011094047
1.4629383 0.64422673 0.057633162 8677995 -0.047554225 -0.025505707 0.99854296 0.0036676051
1.4806492 0.6410358 0.058765054 8480618 -0.072783217 -0.0037355851 0.9973408 0.0026336175
1.4997694 0.64769083 0.059526056 8743790 -0.014237717 -0.027403131 0.99952304 0.0033576996
1.5437337 0.64206517 0.059021354 8612715 -0.035517946 -0.037985258 0.99864686 0.0026388553
1.3350226 0.65432441 0.051899076 8283746 -0.11073422 0.089586265 0.98980415 0.0043713353
1.3463497 0.65694565 0.05257231 8151906 -0.093579344 -0.01944867 0.99542189 0.0021687367
1.3678311 0.6530121 0.05781877 8481129 -0.080096073 -0.023797417 0.99650306 0.0011730368
1.3771009 0.65752637 0.056001127 7692381 -0.071060233 -0.025232546 0.99715281 0.0016741933
1.3997978 0.6584937 0.051605523 8151651 -0.052699775 -0.017742882 0.99845278 0.0014156146
1.429076 0.65243042 0.056644946 8677993 -0.051711604 -0.017850533 0.99850249 0.0013550066
1.4431517 0.65725523 0.054452926 8348514 -0.086447306 0.019356394 0.99606842 0.0014615187
1.4638479 0.65577036 0.058592737 8677993 -0.06144901 0.0050417115 0.99809754 0.0029679346
1.4814399 0.65237576 0.058799058 8545639 -0.07166265 0.017027844 0.99728358 0.002248158
1.5526937 0.65782601 0.058169872 8677995 -0.072813183 -0.045386054 0.99631238 0.0031710858
1.3151673 0.66256356 0.05260253 8612204 -0.1003559 -0.046620719 0.99385875 0.0021765167
1.3408335 0.66756701 0.051426113 8283746 -0.14050502 0.099493071 0.98506826 0.0030794013
1.3728778 0.66379899 0.054338485 8283495 -0.09349364 -0.0045144972 0.99560964 0.0015330773
1.3972483 0.66058862 0.055543095 8414821 -0.10699807 -0.011725307 0.9941901 0.0014200063
1.4019109 0.66771466 0.059718549 8415336 -0.060401205 -0.030087082 0.99772066 0.0012152507
1.4239775 0.66076326 0.059092462 8415336 -0.058157653 -0.018244639 0.99814069 0.001311027
1.4378042 0.66535205 0.055579722 8348514 -0.077785067 0.027515922 0.99659038 0.0011081009
1.4647573 0.66731393 0.059552312 8480614 -0.055982277 -0.018043399 0.99826872 0.002415074
1.54506 0.66909611 0.05971238 8545639 -0.11662184 -0.040185738 0.9923631 0.0021604665
1.3156426 0.67326295 0.053068638 8349541 -0.1179559 -0.051562287 0.99167925 0.0020394614
1.3421748 0.67439467 0.055761844 8349032 -0.071179539 -0.022311788 0.99721396 0.001621625
1.3765419 0.67634577 0.05423969 8217702 -0.10328087 -0.0018916028 0.99465042 0.0018575334
1.394098 0.67296898 0.055109471 8020321 -0.077911802 -0.0022405682 0.99695772 0.0015667307
1.4385722 0.67636526 0.055612773 8217442 -0.080102853 0.022356022 0.9965359 0.0011669573
1.4768974 0.67214006 0.059916079 8348514 -0.1013753 0.040646605 0.9940176 0.0012204158
1.2916257 0.68334579 0.050558567 8283496 -0.12512094 -0.0024720095 0.99213845 0.0022173936
1.3161179 0.68396223 0.053534746 8415334 -0.12608115 -0.042676963 0.99110156 0.0018409735
1.3426582 0.68527645 0.056235909 8283750 -0.064378209 -0.0068738731 0.99790192 0.0024663296
1.3693055 0.68620509 0.059264809 8283750 -0.093112029 0.0027740861 0.99565178 0.002999567
1.3792702 0.6854142 0.052291811 8152162 -0.11922957 0.052740477 0.99146497 0.0020606122
1.4066327 0.68391728 0.057202339 8152167 -0.083975658 -0.0025144762 0.99646461 0.0015082964
1.43874 0.68987197 0.057709932 8152162 -0.036598444 -0.0033128932 0.99932456 0.001806624
1.4796648 0.68575549 0.057094544 8414823 -0.085808545 -0.020213336 0.99610662 0.0021397455
1.4909606 0.68985081 0.057677537 8216928 -0.071711272 -0.0092549212 0.99738252 0.0019308432
1.2920935 0.69387782 0.051017374 8283496 -0.12421969 -0.0086052353 0.99221748 0.0018368791
1.3117288 0.69195569 0.055471867 8217957 -0.10563162 -0.012275897 0.99432957 0.0024473171
1.3431416 0.69615829 0.056709975 8151910 -0.072539389 0.0076157711 0.99733651 0.0027164891
1.3801308 0.69633704 0.053199798 8152162 -0.1074663 0.051295307 0.99288464 0.0016037729
1.4058539 0.696913 0.056763172 8086371 -0.10026228 0.019047359 0.99477875 0.0017117707
1.4454648 0.69043165 0.054552436 7758176 -0.083468333 0.024975009 0.99619746 0.0011546924
1.4825926 0.69757044 0.058499023 8283237 -0.088183455 -0.005510415 0.99608904 0.0017800503
1.3170683 0.70536077 0.054466963 8152164 -0.087548733 0.011954602 0.9960885 0.0028228613
1.3756611 0.7004202 0.058063537 8152164 -0.094545782 0.0056073591 0.99550474 0.0031907621
1.439634 0.70121872 0.058653176 8086369 -0.050204739 0.0081034154 0.9987061 0.0016716811
1.4523641 0.70458931 0.053492308 7626590 -0.089115702 0.014244766 0.99591947 0.0010710601
1.3175436 0.71606016 0.054933101 8151910 -0.10318784 0.016678894 0.99452209 0.0030106145
1.3553301 0.71352917 0.053739548 8086117 -0.075357951 0.029629901 0.99671626 0.0026730779
1.3761545 0.71153009 0.058547556 8086117 -0.097315297 0.019566962 0.99506128 0.0033073858
1.4257138 0.71812689 0.052828461 8020578 -0.066998363 0.019718468 0.99755824 0.0018176822
1.440528 0.71256548 0.05959636 7954785 -0.059076101 0.01573313 0.99812955 0.0019173531
1.4925494 0.71263725 0.057745874 7626590 -0.073775336 -0.0050265491 0.99726224 0.0017693617
1.3616723 0.72779238 0.052497298 8020324 -0.091080166 0.035877988 0.99519706 0.0025749058
1.4484291 0.72763151 0.058801413 7823199 -0.078363985 0.028037466 0.99653047 0.0024941431
1.4824183 0.72070414 0.059999675 7888992 -0.093964249 0.019561164 0.99538338 0.0023005521
1.356305 0.7354753 0.054695636 7757923 -0.086843647 0.040338255 0.99540496 0.0025139877
1.3830117 0.73703766 0.057838231 7692383 -0.10283282 0.029517107 0.99426061 0.0030966331
1.3893794 0.75152642 0.05664894 7560544 -0.11292765 0.041788764 0.99272406 0.0021332011
1.4181769 0.75393265 0.05962339 7823716 -0.078829736 0.029131938 0.99646235 0.0014256914
1.4982938 0.75143111 0.058563113 7495004 -0.077594087 -0.010987371 0.99692452 0.0018554616
1.6124437 -1.1829959 0.065977201 5850199 -0.88593 0.34689239 0.30788592 0.068149067
1.614078 -1.1698326 0.066064633 6903904 -0.8835724 0.42147228 0.20411023 0.067277752
1.6157124 -1.1566691 0.066152066 7430248 -0.88553405 0.40474346 0.22806194 0.065182485
1.6089821 -1.1378266 0.065889031 7561067 -0.67319828 0.33842573 0.65747404 0.073116727
1.6189811 -1.1303424 0.066326931 7955573 -0.72708195 0.22278804 0.64939767 0.048232336
1.6254616 -1.1262807 0.064686596 7887466 -0.82165819 0.42948988 0.3747215 0.058567069
1.6229855 -1.1163881 0.063725561 6833748 -0.7673043 0.39370427 0.5062027 0.064205237
1.6222498 -1.1040156 0.066501796 9139835 -0.83541608 0.17419064 0.5212847 0.085348032
1.63257 -1.1081556 0.062980354 7557982 -0.84704429 0.40689135 0.34198761 0.039677955
1.9321697 -1.1081569 0.063154191 8346720 -0.10857167 -0.082306445 0.99067545 0.0013165611
1.615306 -1.0970606 0.06174764 10520448 -0.50691468 0.55956298 0.65568805 0.085465193
1.6322832 -1.0962591 0.066941515 9864073 -0.79083812 0.16621304 0.58902323 0.08724685
1.6421652 -1.099787 0.062246442 7558234 -0.76575369 0.47452426 0.43410599 0.042798087
1.6247896 -1.0891726 0.060454041 11638929 -0.63325381 0.62433189 0.45738319 0.038137168
1.6432357 -1.0861996 0.06337589 8019038 -0.68169022 0.51332533 0.52134019 0.04622867
1.9209305 -1.0860558 0.066766769 12430500 -0.094476052 -0.08290647 0.99206895 0.0016856261
1.6171116 -1.0723499 0.066323936 9600899 -0.78676182 0.20125453 0.5835259 0.087245539
1.6528472 -1.0776267 0.062658906 8216415 -0.69330013 0.50161093 0.51741803 0.042424846
1.6267895 -1.0658376 0.067774296 7164760 -0.64216083 0.36641946 0.67332476 0.041180842
1.6453191 -1.0663629 0.067420065 11640214 -0.54244453 0.40205622 0.73763454 0.05365935
1.6634188 -1.0694669 0.061748803 8216417 -0.70091432 0.44614932 0.55647993 0.045028456
1.614805 -1.0502815 0.061169207 14404055 -0.20610376 0.33964717 0.91769338 0.03463807
1.6272106 -1.0541072 0.068694174 6637896 -0.60887176 0.46233943 0.64460641 0.049909648
1.6372116 -1.0565648 0.067205168 10192010 -0.70078403 0.29556942 0.64926147 0.025800839
1.6443858 -1.0508988 0.067375831 7033421 -0.62278634 0.46435076 0.62969494 0.051363822
1.6557059 -1.0547165 0.067931913 7889764 -0.62741816 0.37251237 0.68379897 0.041015852
1.6645007 -1.0557357 0.062890232 8216676 -0.81801349 0.29220974 0.49544674 0.040256497
1.6472869 -1.0484684 0.067647137 10850704 -0.68626034 0.28054246 0.67107576 0.022050895
1.6545293 -1.0437266 0.066588126 10060405 -0.58354867 0.43390161 0.68644047 0.044722073
1.6655825 -1.0420045 0.064031601 8611683 -0.83065289 0.1628935 0.53242981 0.037987866
1.8491728 -1.0496707 0.064698696 7822433 -0.094445586 -0.075949997 0.99262869 0.0022767102
1.6489382 -1.0351689 0.067735471 10588043 -0.71451318 0.25493214 0.65152168 0.018627387
1.6567738 -1.034519 0.068537869 6968410 -0.63075376 0.28342304 0.72237188 0.038676806
1.8609051 -1.0399047 0.063926637 8547171 -0.094651759 -0.05092109 0.99420732 0.0021653429
1.654646 -1.0252938 0.06811817 6772567 -0.60593051 0.36281782 0.70796287 0.037110172
1.6658778 -1.0254066 0.065424666 10388858 -0.69331694 0.17561249 0.69890767 0.033096883
1.7878835 -1.0219051 0.066599548 7690584 -0.034839958 0.54614747 0.83696425 0.054365139
1.8889986 -1.0270165 0.06855765 9798018 -0.068730719 0.0077532609 0.99760514 0.0017706793
1.6554524 -1.0163838 0.066450685 9404022 -0.49006864 0.4766072 0.72984815 0.039778329
1.6772658 -1.0197351 0.064294338 8152403 -0.68294096 0.14227097 0.71648496 0.052122794
1.6864127 -1.0117702 0.066276371 2297876 -0.27193621 0.48181334 0.83301061 0.030401874
1.7814975 -1.0153519 0.062907338 8676956 0.17428431 0.28880736 0.9413901 0.050344285
1.7911099 -1.0150696 0.069444835 8743519 0.017129662 0.14065546 0.98991042 0.023595132
1.8515489 -1.0195135 0.067205548 9073262 -0.094974324 -0.026316211 0.99513179 0.0021426708
1.6522406 -1.0085698 0.067912146 11114387 -0.66123235 0.33163744 0.67289555 0.037200727
1.6654551 -1.0045117 0.066946059 10653571 -0.56632894 0.33567101 0.75272608 0.038088754
1.6969432 -1.0033143 0.064912945 4727578 -0.18176821 0.5771569 0.79614717 0.023588395
1.7430139 -1.0084388 0.066992179 6374983 0.19493282 0.48886412 0.8503018 0.059406534
1.7792879 -1.002405 0.067972064 8482148 -0.035011038 0.54635745 0.83682007 0.054332934
1.7931699 -1.0060849 0.062012136 9138017 0.025994645 0.06141844 0.99777359 0.019403446
1.8014858 -1.0055977 0.067971617 9072486 -0.11124998 0.050888877 0.99248868 0.0062217028
1.8632942 -1.0095811 0.066447318 9337204 -0.10171123 -0.024428323 0.99451399 0.001947419
1.8794618 -1.0065106 0.06998229 9929602 -0.052537836 0.0085139917 0.99858266 0.0010412661
1.9026901 -1.0022397 0.06714493 10126981 -0.073666185 0.012596098 0.99720341 0.0016522715
1.666292 -0.99551404 0.066853672 13021616 -0.29201645 0.19996895 0.93527478 0.042593252
1.6809677 -0.99635464 0.069157869 11313551 -0.602162 0.40560085 0.68766922 0.042363293
1.7074839 -0.99470633 0.063549936 8872270 -0.13573033 0.55212939 0.82263625 0.024390753
1.7561446 -0.9987545 0.062630624 9335650 0.12914546 0.33461019 0.9334653 0.047468115
1.7899016 -0.99296218 0.066686332 8940130 -0.048066065 0.30736643 0.95037651 0.051134143
1.8021289 -0.99111903 0.068602353 9072484 -0.14082822 0.048737805 0.98883367 0.0057131043
1.8644888 -0.99441916 0.067707658 9731966 -0.1061324 -0.015642017 0.99422902 0.0021033529
1.66991 -0.98707974 0.068597257 9135702 -0.43998903 0.152271 0.88499898 0.026734401
1.6755991 -0.98663652 0.065413952 12955819 -0.24944031 0.20691609 0.94602609 0.036429204
1.6936224 -0.98218894 0.061954737 13021612 -0.30486059 0.28152415 0.90983742 0.03583961
1.7170768 -0.98543596 0.062327832 10979186 -0.1562673 0.41320881 0.89712822 0.040384136
1.7567739 -0.98458767 0.06324783 10388086 0.0051414669 0.15816039 0.98740005 0.024225393
1.7837936 -0.98620915 0.065329909 9072226 0.019903928 0.056733124 0.998191 0.025967117
1.7276385 -0.97653157 0.060965747 11442057 -0.076135665 0.299236 0.95113677 0.036298223
1.7931948 -0.97763312 0.06558913 9006946 -0.044455655 0.1585183 0.98635471 0.033518266
1.802772 -0.97664034 0.069233149 9007716 -0.13259971 0.036983237 0.99047947 0.006122428
1.8656834 -0.97925723 0.068967998 9995136 -0.10100567 -0.014818303 0.99477553 0.0021907748
1.5728852 -0.96145517 0.061734408 14799844 -0.042887092 0.012344904 0.99900371 0.0038804
1.6362679 -0.96734941 0.06099999 13550027 -0.10011349 0.064706601 0.99286979 0.0048115714
1.6942317 -0.96847069 0.062552392 13547960 -0.13532054 0.22232325 0.96553648 0.014474262
1.7476896 -0.96557021 0.066033989 11375241 -0.028135061 0.15586004 0.98737836 0.021818796
1.8043652 -0.96621227 0.066252224 9007204 -0.087021448 0.0068516084 0.99618286 0.0033432022
1.8784167 -0.96943682 0.068056345 10061442 -0.093651183 -0.0022796246 0.99560249 0.0023425666
1.694841 -0.95475245 0.063149989 13416121 -0.10843307 0.18458146 0.97681725 0.013670344
1.7412927 -0.95059949 0.06066969 12099229 -0.076953828 0.049685821 0.99579585 0.016648453
1.7580326 -0.95625389 0.064482182 11309196 -0.081474721 -0.017537069 0.99652112 0.0011516458
1.8035171 -0.95474494 0.065355599 9204074 -0.032913614 0.063824907 0.99741822 0.0075836321
1.7051384 -0.94588041 0.061507136 13219001 -0.066072531 0.11093105 0.99162936 0.0054454617
1.7683823 -0.94678527 0.062936991 11770518 -0.091047563 -0.018037392 0.99568319 0.00089362741
1.7977883 -0.94746614 0.066884816 9138020 -0.085349254 -0.024575474 0.99604797 0.0012836282
1.8045319 -0.94018984 0.06539923 9400942 -0.05673768 -0.020302335 0.99818271 0.0010483796
1.7057512 -0.93208617 0.06210807 13153212 -0.079756714 0.031102432 0.99632901 0.0018580861
1.7424158 -0.93634605 0.061854511 11901852 -0.099484943 -0.034640599 0.99443597 0.0014952844
1.8095001 -0.93769944 0.066031098 9533037 -0.075666144 -0.02324409 0.99686223 0.00083594862
1.7123171 -0.92538917 0.063757867 12560546 -0.10739306 0.022321118 0.9939661 0.0015121852
1.7566803 -0.92748773 0.063298047 11967898 -0.10360314 -0.014676298 0.99451047 0.00089141156
1.8055468 -0.92563468 0.06544292 9796209 -0.061149582 -0.023841856 0.99784386 0.0010398572
1.8106613 -0.92296147 0.067256212 9731186 -0.066035785 0.002540529 0.99781406 0.00097957335
1.8935821 -0.92874777 0.069710732 10455689 -0.096601576 0.029597722 0.994883 0.0015062355
1.7063639 -0.91829187 0.062709004 13153723 -0.10350314 0.02757296 0.9942469 0.0016987649
1.7219338 -0.91577685 0.062536776 12494241 -0.12591067 0.0021442035 0.99203926 0.0017345916
1.7551988 -0.91271865 0.062071353 12099742 -0.099273197 -0.0051519801 0.99504691 0.0016798113
1.7696476 -0.91829944 0.06417802 11771545 -0.081284225 0.00060907006 0.99669081 0.0011212641
1.7166744 -0.90911567 0.061079323 13087930 -0.094856054 0.020917788 0.99527127 0.0020320029
1.7325219 -0.90649241 0.061175823 12691879 -0.11971094 -0.0167751 0.99266708 0.0018133653
1.7959558 -0.90613335 0.066946805 10389629 -0.074907176 -0.024684073 0.996885 0.0010537814
1.8118225 -0.90822351 0.068481326 9731186 -0.068250299 0.010116033 0.99761701 0.0012827291
1.8341372 -0.90276188 0.06560415 9928313 -0.059621293 0.015923338 0.99809408 0.0010619446
1.7172906 -0.89524531 0.061683536 13153212 -0.097206891 0.033381227 0.99470425 0.0030094397
1.7334986 -0.89248455 0.061217815 12757420 -0.11955968 -0.0010320554 0.99282652 0.0020749306
1.7563285 -0.89838195 0.063263088 12099742 -0.10036963 -0.001909405 0.99494839 0.0015926415
1.7605497 -0.89958626 0.066950887 12033949 -0.092591085 -0.021642871 0.99546897 0.0013256783
1.8271331 -0.89884537 0.068661869 10323069 -0.12878487 0.0044647828 0.99166256 0.0017353314
1.757458 -0.88404512 0.064454824 12296610 -0.083250538 0.0092131868 0.99648607 0.0021980051
1.761179 -0.88541943 0.067568034 12427429 -0.092313536 -0.018438892 0.99555928 0.0012821027
1.7873178 -0.88724124 0.068317473 10520700 -0.074619494 -0.01937714 0.99702382 0.0015539537
1.8353114 -0.8878575 0.066843092 9928311 -0.056813523 0.020721957 0.99816978 0.00090123189
1.7082021 -0.87690902 0.064511806 13284285 -0.1067642 -0.0058915881 0.99426693 0.0049753655
1.7344753 -0.87847674 0.061259836 12823213 -0.11662629 -0.00057263585 0.99317575 0.0020755774
1.7681848 -0.87391734 0.063708305 12361885 -0.079001173 0.012083985 0.99680126 0.0018008795
1.7715456 -0.87557065 0.066039473 12231330 -0.087758422 -0.020940201 0.99592167 0.0011868767
1.7185228 -0.86750472 0.062892079 12957112 -0.09779796 -0.028078359 0.99481016 0.0051290365
1.7354519 -0.86446887 0.061301857 12758703 -0.11663532 -0.0038968206 0.99316716 0.0021014588
1.7721783 -0.86132771 0.066659957 12101031 -0.096556753 -0.018330146 0.99515873 0.00089208194
1.789487 -0.8681848 0.06084913 12100510 -0.076235637 -0.0071909577 0.99706388 0.0023519187
1.8482567 -0.86243695 0.067290574 10453638 -0.055430435 -0.026238237 0.99811774 0.0016860135
1.9344143 -0.86587429 0.069753379 10718608 -0.09176036 -0.0048514386 0.99576932 0.0019676776
1.7278793 -0.85751683 0.061500788 12826814 -0.10013134 -0.038954984 0.99421138 0.0046511735
1.7893251 -0.85845029 0.06840384 11442582 -0.073070027 -0.02129944 0.9970994 0.0014608003
1.7181168 -0.84220868 0.064007342 12627379 -0.12615021 -0.0267931 0.99164927 0.003551095
1.7716334 -0.84608859 0.066692427 11838115 -0.10152671 -0.02057955 0.99461991 0.0024666777
1.7903289 -0.84405494 0.068446994 11441552 -0.082807101 -0.012930712 0.99648172 0.0018672741
1.8023597 -0.84342206 0.061160296 10061693 -0.065892488 -0.013099216 0.99774075 0.0025320589
1.8494376 -0.84744912 0.06853649 10389124 -0.071101382 -0.034224194 0.99688178 0.0017401642
1.9242694 -0.84666938 0.068424165 9138797 -0.042523056 -0.037096273 0.99840653 0.0047930442
1.7135122 -0.83627635 0.063716695 12627638 -0.092048354 -0.040515095 0.99492997 0.0037264344
1.7374054 -0.83645326 0.0613859 10916499 -0.10164689 0.0050478699 0.99480772 0.0017719973
1.7734436 -0.83284181 0.067900926 9862521 -0.087424733 -0.040430259 0.99535036 0.0011766003
1.8621925 -0.83706707 0.067582488 8414554 -0.062161017 -0.050898168 0.99676752 0.0015868662
1.6116025 -0.82169771 0.060652137 11705766 -0.13395099 -0.038925041 0.99022323 0.002638686
1.7106531 -0.82173193 0.066915601 12953008 -0.083339155 -0.069488846 0.99409556 0.0043459469
1.7480305 -0.82663667 0.060026526 13218225 -0.09706714 0.013719481 0.99518329 0.0024380574
1.7913326 -0.8296594 0.068490207 10322301 -0.10987216 0.0032196958 0.99394053 0.0024700512
1.8126507 -0.82374918 0.065748513 11703955 -0.080166005 -0.0078783939 0.99675041 0.0023113806
1.8633806 -0.82198846 0.068835914 10848897 -0.05694446 -0.042659596 0.99746555 0.0017453025
1.669522 -0.81908882 0.061785698 14140618 -0.065152951 -0.087034099 0.99407256 0.0038649167
1.7740762 -0.81859887 0.06852141 12691620 -0.092675656 -0.052068762 0.99433398 0.0013353003
1.635604 -0.80594397 0.062620848 13942211 -0.050795734 -0.052761607 0.99731439 0.0035297042
1.6701223 -0.80557591 0.062374413 13812682 -0.068292409 -0.077964403 0.99461436 0.0042046881
1.7112658 -0.80793762 0.067516536 13219255 -0.078724921 -0.069851466 0.99444616 0.0040709269
1.7210166 -0.80061841 0.064132094 13152432 -0.081088476 0.0023282787 0.99670422 0.0015584985
1.7742857 -0.80310547 0.069420204 12560038 -0.096119456 -0.028894344 0.99495035 0.001789687
1.7933401 -0.80086845 0.068576574 12033438 -0.11465065 0.0049175182 0.99339372 0.0025619571
1.6794488 -0.79573637 0.060911983 13812167 -0.069649167 -0.049052481 0.99636483 0.0035709753
1.7118785 -0.79414338 0.06811747 13154491 -0.08176896 -0.056877214 0.99502707 0.0036630952
1.7306764 -0.79039037 0.062912881 13284534 -0.085426487 0.0026420893 0.99634093 0.0015854387
1.7952273 -0.79532778 0.066905439 12362405 -0.10763662 -0.040012777 0.99338478 0.0020955098
1.6220486 -0.78612882 0.060245991 14206925 -0.13038336 -0.0027452337 0.99145985 0.0024177309
1.7309752 -0.78782302 0.064536989 13351102 -0.074732788 -0.040246546 0.99639112 0.0041180188
1.7413121 -0.78042185 0.061553955 13087669 -0.095474266 -0.0042178915 0.99542302 0.0016494478
1.8069781 -0.78480345 0.066033036 12231330 -0.10008275 -0.026447782 0.99462759 0.0022410876
1.6713227 -0.77855009 0.063551784 13942987 -0.080477752 0.0023978355 0.99675357 0.0010048288
1.7228357 -0.77041245 0.067121863 13285309 -0.072549082 0.0079152407 0.99733347 0.0012679957
1.7516563 -0.77421886 0.060610741 13219002 -0.10597084 -0.007226279 0.99434298 0.0013966954
1.7953475 -0.77207756 0.068662882 12362916 -0.11317494 -0.024587322 0.99327081 0.0016309861
1.6719229 -0.76503712 0.064140439 13746376 -0.094092667 -0.010839894 0.99550444 0.00096693326
1.752477 -0.76388288 0.062210798 13087928 -0.11624753 -0.0050457269 0.99320745 0.0013439709
1.7975234 -0.76618493 0.06932795 12428709 -0.11402898 0.0030419086 0.99347281 0.0013832387
1.6725231 -0.75152421 0.064729154 13680583 -0.092378147 -0.019592861 0.99553126 0.0011924164
1.7234517 -0.75654209 0.067726135 13285055 -0.073706597 0.0082730576 0.99724567 0.0013247374
1.7529405 -0.7562176 0.060237736 13087415 -0.097512014 -0.034880538 0.99462295 0.0015036908
1.7870072 -0.75101805 0.069507927 12692911 -0.1196456 -0.0207303 0.9926002 0.0017426239
1.7963512 -0.75768209 0.068706095 12362916 -0.10426044 -0.026711006 0.99419129 0.0016154029
1.8092873 -0.75549406 0.068469375 12231846 -0.097687632 0.023772188 0.99493319 0.0016251991
1.681862 -0.74141085 0.063278645 13548997 -0.0863818 -0.017296398 0.99611199 0.0012486221
1.7328326 -0.74600673 0.066358685 13285309 -0.071890958 0.015781811 0.99728763 0.0012372946
1.7536001 -0.74962932 0.063395679 13153208 -0.12935606 0.0036520064 0.99159151 0.0010170691
1.7973549 -0.74328667 0.068749249 12428709 -0.091764674 -0.027781926 0.99539316 0.001524545
1.810442 -0.74083936 0.069687575 12231846 -0.0854799 0.037659101 0.99562794 0.0016403986
1.7258497 -0.73130125 0.064340025 13153208 -0.10501375 -0.0070997518 0.99444544 0.0021465884
1.7431937 -0.73569739 0.064778388 13219514 -0.085439362 0.014939205 0.99623138 0.0017369997
1.7653189 -0.7392481 0.062429726 13021622 -0.11862044 -0.0053862333 0.99292511 0.00084842887
1.6336893 -0.72367096 0.061011314 14075343 -0.10043616 -0.01946733 0.99475306 0.0019132904
1.6824652 -0.72782958 0.063870341 13483204 -0.079766937 -0.0060079065 0.99679548 0.0010217378
1.7355334 -0.72073126 0.063121825 13087669 -0.11453301 -0.029797191 0.99297249 0.0018788243
1.7664485 -0.72491127 0.063621461 13021622 -0.1195377 -0.0014329032 0.99282867 0.0010276175
1.6743239 -0.71098542 0.06649518 13417411 -0.083810918 -0.0028801521 0.99647748 0.0010147416
1.7340709 -0.71812922 0.06757319 13219516 -0.065669753 0.0002973676 0.99784142 0.0015237221
1.767578 -0.71057451 0.064813256 12955570 -0.11300053 -0.020215273 0.99338931 0.0015283156
1.6435868 -0.70045161 0.060067207 13943757 -0.098738201 -0.0097314687 0.99506587 0.0013881698
1.7277831 -0.70357442 0.064423174 13021622 -0.1191228 -0.028002188 0.99248457 0.0022613308
1.7346901 -0.70419043 0.068180382 13219001 -0.06395334 0.005025465 0.99794024 0.0022320903
1.8458322 -0.70751762 0.067215681 12165537 -0.076543823 0.023795746 0.99678224 0.0018130548
1.6749241 -0.69747257 0.067083895 13351618 -0.084124483 -0.016076917 0.99632555 0.001152362
1.7450613 -0.69365299 0.066610038 13153208 -0.088717379 0.0039791805 0.99604887 0.0020032574
1.7783581 -0.69953078 0.064068556 12890290 -0.093874529 -0.0042919815 0.99557483 0.0021458864
1.8576553 -0.69607729 0.066419423 12297123 -0.080326162 0.022496605 0.99651474 0.0018669232
1.6441779 -0.68714398 0.060646921 13943755 -0.11029048 -0.016057329 0.99376971 0.0010204688
1.684275 -0.68708551 0.065645307 13482434 -0.070476301 -0.017040553 0.99736792 0.0010208006
1.7190536 -0.68620366 0.065864116 13087415 -0.14332499 -0.012757989 0.98959351 0.0040275981
1.7554393 -0.68296355 0.065046281 13153208 -0.11462232 0.0072894357 0.99338239 0.0026171487
1.7901161 -0.68865746 0.063143551 12955570 -0.075119048 0.013272651 0.99708629 0.0026059903
1.644769 -0.67383641 0.061226696 13877194 -0.11424048 -0.0074488232 0.99342525 0.001197078
1.6936321 -0.67656142 0.06421271 13416641 -0.057105541 -0.035157114 0.99774897 0.0017645424
1.7161473 -0.67805189 0.062313408 13482175 -0.075705327 -0.0062164669 0.9971109 0.0023550764
1.7297163 -0.67584753 0.064506352 13021622 -0.14645322 -0.020907428 0.98899662 0.0038002415
1.8481808 -0.67770869 0.069693565 12362662 -0.085389324 -0.008210578 0.99631387 0.0019309697
1.6453601 -0.66052884 0.061806411 13877194 -0.1085065 -0.015796859 0.99397027 0.0010691393
1.6942384 -0.66291165 0.064807326 13416895 -0.055401776 -0.033129729 0.99791437 0.0017342044
1.7394189 -0.6650039 0.063288957 13021624 -0.15822613 -0.040985975 0.98655194 0.0038551297
1.7463064 -0.66562337 0.067831159 13153208 -0.080725491 0.0026850924 0.99673277 0.0017697552
1.7709666 -0.66756427 0.068388522 12955570 -0.10711727 -0.010373809 0.9941923 0.0023615037
1.8600171 -0.66610175 0.068911195 12296869 -0.095549144 -0.023526 0.99514669 0.0016023603
1.7376343 -0.6564188 0.060637891 13285309 -0.095062107 -0.0093360543 0.99542761 0.0019937491
1.7566911 -0.65478188 0.066273957 13153208 -0.083000749 -0.0097500347 0.99650186 0.0014763194
1.7720963 -0.65322751 0.069580257 12889777 -0.10650021 -0.017946467 0.9941507 0.0025114557
1.6459513 -0.64722115 0.062386185 13811401 -0.11379892 -0.038263775 0.99276668 0.0011240424
1.6948447 -0.64926189 0.065402001 13416895 -0.047739599 -0.026174406 0.99851686 0.0017180045
1.7219375 -0.64484143 0.065988183 13152695 -0.18007526 -0.00029998555 0.98365283 0.0040701167
1.7573169 -0.64069104 0.066887826 13153208 -0.084874399 -0.0094108628 0.99634725 0.0015283754
1.7935423 -0.64517033 0.066758454 12824497 -0.092230268 -0.039671075 0.99494714 0.0021709362
1.6465423 -0.63391358 0.0629659 13679813 -0.1187252 -0.040556427 0.99209857 0.0013755979
1.6866882 -0.63275999 0.068011969 13416895 -0.062867917 -0.016093092 0.99789208 0.0015584712
1.722899 -0.63105392 0.066029519 13087415 -0.14745744 -0.031423658 0.98856908 0.0051315324
1.8043648 -0.63358921 0.066058457 12824497 -0.090737902 -0.050758731 0.99458039 0.0023456458
