# .PCD v0.7 - Point Cloud Data file format
VERSION 0.7
FIELDS x y z rgb normal_x normal_y normal_z curvature
SIZE 4 4 4 4 4 4 4 4
TYPE F F F U F F F F
COUNT 1 1 1 1 1 1 1 1
WIDTH 540
HEIGHT 1
VIEWPOINT 0 0 0 1 0 0 0
POINTS 540
DATA ascii
2.5022507 0.28770143 0.50597823 11050146 -0.97265702 0.024872921 -0.23091038 0.035809774
2.5171316 0.29292777 0.50415766 10590361 -0.98825568 0.097166635 0.11793811 0.028147569
2.5027275 0.30643317 0.50648779 10984608 -0.97061938 0.13992967 -0.19574919 0.038294129
2.5183046 0.31091556 0.50582349 10459547 -0.99320579 0.11384815 -0.024101406 0.057701994
2.5032041 0.32516491 0.50699729 10853022 -0.97803855 0.14139573 -0.15312701 0.042668931
2.5194778 0.32890341 0.50748944 10458777 -0.99853122 0.011551311 -0.052935243 0.070737049
2.5033283 0.3432247 0.50905418 10919069 -0.98054987 0.093657717 -0.17248242 0.064598225
2.5211658 0.34709615 0.50802559 10590105 -0.98865145 0.071698621 -0.13201383 0.049601652
2.5045114 0.36315954 0.50673568 10721436 -0.99118102 0.13250992 0.0011386275 0.037158981
2.5042782 0.38096964 0.5095399 10721436 -0.99322355 -0.063556127 -0.097301722 0.052921731
2.5226443 0.38474184 0.50845909 10655386 -0.9840669 0.17729492 0.013376893 0.049679503
2.5047531 0.39984208 0.50978273 10590104 -0.95388252 -0.19039257 -0.23207523 0.042617097
2.5231261 0.40346217 0.50924075 10589593 -0.99765372 -0.045502666 0.051152978 0.064844258
2.4886763 0.43890002 0.50036561 10983583 -0.92609388 0.37642395 -0.025596045 0.056805804
2.5064249 0.43752348 0.50984061 10523798 -0.99003631 0.079086557 -0.11650489 0.058951743
2.5204923 0.43879375 0.5005275 10195603 -0.96256268 -0.11304439 -0.24636172 0.060017299
2.5216656 0.4567816 0.50219345 10129810 -0.96142638 -0.15124312 -0.22974956 0.058111358
2.5072188 0.46140093 0.50365758 10917277 -0.93839359 0.34403464 -0.032523111 0.053068455
2.5228388 0.47476938 0.5038594 10195346 -0.94792783 -0.24457988 -0.20399426 0.073030613
2.5056639 0.48879525 0.50510418 10063758 -0.9113636 -0.26977271 -0.3108682 0.10814519
2.5257664 0.48417586 0.50696087 11048093 -0.96032512 0.22156616 -0.16936406 0.023078928
2.5068288 0.50665438 0.50675821 10129553 -0.98958302 -0.1288521 -0.064208031 0.11328448
2.5261419 0.50330991 0.50775504 10850714 -0.97700274 0.021300867 -0.21216024 0.03666202
2.5079935 0.52451342 0.50841224 9997967 -0.99769539 0.050997876 0.044756711 0.017405812
2.5265172 0.52244407 0.50854921 10654105 -0.98439652 0.0035735182 -0.17592822 0.034209915
2.5087097 0.5373894 0.5068115 10588312 -0.98824871 0.051917192 -0.14376773 0.043783884
2.5094552 0.57538366 0.50838852 10390933 -0.9913668 0.128492 0.026109856 0.037773568
2.5098279 0.5943808 0.50917697 10324370 -0.99809235 0.049123049 0.037397742 0.025146868
2.524946 0.62897247 0.50032109 9734284 -0.99806589 -0.024654604 -0.057066564 0.031264655
2.5273731 0.6386233 0.50189519 9537162 -0.98860097 -0.032430425 0.14702535 0.08078073
2.5254278 0.6476928 0.50110275 9668491 -0.99941987 -0.024004154 -0.02416034 0.02355532
2.5101655 0.65147674 0.50315416 9471112 -0.96390975 -0.2660079 -0.010861665 0.077038094
2.4940228 0.66438234 0.50441372 9405319 -0.9865818 -0.16047351 -0.030075878 0.063975088
2.5259094 0.66641319 0.50188434 9668491 -0.99799079 -0.057465829 -0.026685195 0.023908744
2.4951799 0.68212038 0.50605655 9339524 -0.99962866 -0.011173073 0.024856746 0.048552975
2.5263913 0.68513352 0.502666 9602698 -0.99776012 -0.020415341 -0.063702673 0.023591213
2.5136602 0.7050541 0.50811613 9273731 -0.99020731 0.12899089 0.0533939 0.051471505
2.5268729 0.70385391 0.50344765 9536905 -0.99535811 0.081875488 -0.050583184 0.020803075
2.4974937 0.71759629 0.50934207 9011072 -0.98878706 0.13303398 0.06783957 0.045195021
2.5226998 0.71609086 0.50344151 8418935 -0.99338621 0.046175562 0.10512707 0.024356423
2.5273547 0.72257423 0.50422925 9273733 -0.99411523 0.10696431 -0.017134324 0.020682778
2.5236251 0.73417002 0.50341088 8418935 -0.99809253 0.014721042 0.059954554 0.027898846
2.5278363 0.74129462 0.50501084 9273990 -0.99096972 -0.11110386 -0.075066529 0.079609305
2.5245502 0.75224918 0.50338018 8286836 -0.98609424 -0.021317841 0.16481446 0.031170134
2.4934058 0.76730716 0.50470591 9207170 -0.84053177 -0.53915423 -0.05309616 0.066168636
2.5283182 0.76001495 0.5057925 9339526 -0.84415996 -0.53485507 -0.036388516 0.071292244
2.5254755 0.7703284 0.50334954 8155252 -0.96346003 0.031085081 0.26604241 0.019968094
2.493881 0.78576887 0.50547671 9076100 -0.96901077 -0.24111915 -0.053663462 0.069582082
2.50789 0.78236854 0.50387418 8221045 -0.96085757 0.024340734 0.27597159 0.022132097
2.53109 0.79112917 0.50054264 9404036 -0.96612662 0.12068602 -0.22811022 0.032489292
2.4943559 0.80423051 0.50624752 8944514 -0.99882829 -0.0040963176 0.048221517 0.023667052
2.5273259 0.80648679 0.50328827 8089457 -0.95492458 0.081606276 0.28541109 0.020656804
2.5146673 0.81415814 0.50120401 8551548 -0.97622216 0.11410785 0.18430871 0.023426451
2.5314653 0.81026328 0.50133681 9404038 -0.95155102 0.021436477 -0.30674288 0.028723028
2.4948311 0.8226921 0.50701833 8944514 -0.99659181 0.081853583 0.01024057 0.027319575
2.5282509 0.82456583 0.50325763 8154480 -0.96802467 0.12184046 0.21927883 0.022662034
2.5318408 0.82939738 0.50213099 9338245 -0.9820022 -0.056854118 -0.18010925 0.029286208
2.5158322 0.83201736 0.50285804 8616571 -0.96340513 0.2322672 0.1338 0.024005169
2.495306 0.84115368 0.50778919 9010307 -0.98408782 0.17039055 0.050380621 0.030083872
2.5169969 0.84987646 0.50451207 8682107 -0.96932501 0.1927797 0.15246323 0.033999477
2.5291762 0.84264505 0.503227 7957873 -0.94801438 0.17571305 0.26531804 0.019939546
2.5322163 0.84853154 0.50292516 9272452 -0.98269808 -0.10102399 -0.1552375 0.033116456
2.5134947 0.86597621 0.50952119 8813441 -0.98374879 0.17466643 0.041593436 0.035623606
2.5313466 0.86419511 0.50345784 8549499 -0.98663586 0.123349 0.10646448 0.027747732
2.5338135 0.876616 0.50488025 8286838 -0.94802088 0.2551018 0.19020914 0.041608132
2.5193267 0.88559479 0.50782001 8550267 -0.95326424 -0.014045978 0.3018114 0.064573504
2.5329671 0.88679981 0.5045135 9337477 -0.99818534 0.058415331 -0.014619605 0.011521048
2.5319519 0.89688265 0.50313509 7957101 -0.96433133 0.25098005 -0.084108032 0.071329899
2.5204916 0.90345383 0.50947404 8419194 -0.9530077 -0.055444777 0.29782924 0.066661209
2.5333424 0.90593398 0.50530767 9206661 -0.993949 0.10945611 -0.0092084929 0.019950746
1.7689483 0.91982782 0.50497591 6240550 0.13490792 -0.99055266 -0.024603536 0.0029913899
1.9363651 0.91178352 0.50797123 5255702 0.057672359 -0.99481106 -0.083814673 0.0058563221
1.978341 0.9182927 0.50643522 4860944 0.011357062 -0.99285567 -0.11877979 0.0056101144
2.0059109 0.916767 0.50585997 6439467 -0.50475508 -0.85444146 -0.12309408 0.023039715
2.0128193 0.91622603 0.50150532 6701880 -0.3460629 -0.93736649 -0.039807025 0.043571081
2.0337646 0.91633415 0.50440538 5650478 0.013808968 -0.99641508 -0.083464369 0.0099061904
2.0462763 0.91997832 0.50759339 7427410 -0.24684317 -0.96699339 -0.063183852 0.036320459
1.7508817 0.92310208 0.50193071 5911330 0.12594818 -0.99200684 -0.0077154534 0.0025949185
1.8111122 0.92388058 0.50627261 6044709 0.082398675 -0.99631518 0.02380418 0.0038185855
1.8228955 0.92267054 0.50088918 6371366 0.044881497 -0.99796849 0.045217268 0.0071803634
1.8521295 0.92425025 0.50585878 6306343 0.04324764 -0.99567181 0.082263529 0.006417132
1.8973825 0.92823642 0.50268781 6307113 0.044057034 -0.99883628 0.019624369 0.011488879
1.9089707 0.92658752 0.50172353 6044707 0.096611999 -0.99496937 -0.026497629 0.0037772914
1.9153914 0.92626667 0.50341266 6372393 0.002273279 -0.99963474 0.026929382 0.007678288
1.9947761 0.92604834 0.50571549 6175274 -0.44347215 -0.88663971 -0.13115838 0.025986116
2.0115335 0.92008704 0.50522012 5386777 0.015450262 -0.99770081 -0.065987855 0.0088427598
2.5688994 0.92844242 0.50202352 7694699 -0.92826712 -0.017084343 -0.37152153 0.13410176
1.8878953 0.93358105 0.50128031 6175526 0.051518571 -0.99847347 0.019914538 0.0086213062
1.955524 0.93504429 0.50897086 6306600 -0.021908518 -0.99840444 -0.052044388 0.0084022004
1.9620205 0.93892485 0.50470537 6175779 -0.021111196 -0.99468696 -0.10075779 0.016151091
1.9731659 0.93005449 0.50486708 6044191 -0.28718531 -0.95268697 -0.099560075 0.033890571
2.5516119 0.93585062 0.50558007 8286326 -0.97221649 -0.04840298 -0.22902454 0.081620432
2.5347273 0.95112014 0.50304312 7563624 -0.96362478 -0.26639414 0.0214836 0.11588302
2.5523279 0.95127368 0.50941038 8943487 -0.96837461 -0.13606468 -0.20913421 0.062879041
2.5350606 0.96626794 0.50535136 8155251 -0.95681286 -0.29053903 -0.00981405 0.096282601
2.5166042 0.97512496 0.50595868 8811903 -0.7826221 -0.5083515 -0.35927907 0.069023192
2.498734 0.98663968 0.50421578 8614524 -0.95383316 -0.26582962 -0.13977464 0.098685421
2.5365777 0.98727846 0.50298184 7234661 -0.99950212 0.030895324 -0.0063988259 0.07272362
2.5203338 0.99469894 0.5009079 8089968 -0.988792 -0.1099922 -0.10095608 0.028841896
2.499104 1.0054998 0.50499856 8482938 -0.99453771 -0.06432014 -0.082205191 0.078993455
2.537503 1.0053579 0.5029512 7234661 -0.98594481 0.081237569 -0.14599124 0.042647477
2.5214987 1.012558 0.50256193 7958130 -0.99009645 -0.079793692 -0.11550799 0.028660253
2.5384281 1.023437 0.50292057 7168868 -0.96938926 -0.059791822 -0.23813727 0.046377599
2.5177221 1.0321164 0.50832415 8351352 -0.99433374 -0.10582019 -0.010124939 0.080530383
2.5226636 1.0304172 0.50421596 7826035 -0.99386382 -0.085185252 0.070556134 0.048923451
2.5238283 1.0482763 0.50586998 7695471 -0.9726246 -0.19865051 0.12057948 0.042341039
2.5393534 1.0415162 0.50288993 7103075 -0.95108473 -0.20224847 -0.23352391 0.027531449
2.5075932 1.0584906 0.50711119 7563885 -0.95167178 -0.30611038 -0.024845302 0.07458277
2.518095 1.0511136 0.5091126 8351099 -0.98949403 -0.11915605 0.081873983 0.062545359
2.5402784 1.0595953 0.50285929 6840160 -0.92432475 -0.24725343 -0.29067096 0.034394108
2.5002143 1.0620803 0.50734699 8153973 -0.99947119 -0.0078794602 0.031548224 0.06380789
2.5225871 1.0695659 0.50338739 6971487 -0.87438589 -0.37513998 -0.30776492 0.057265799
2.5087502 1.0762287 0.50875401 7235690 -0.88244057 -0.40034723 -0.24702373 0.095488459
2.4893563 1.089715 0.50437927 6576729 -0.8318612 -0.41559604 -0.36781374 0.064666905
2.5005844 1.0809402 0.50812984 8153201 -0.99429643 0.10011031 -0.036777057 0.055382933
2.5153022 1.089928 0.50066328 7563372 -0.98774791 -0.14848971 0.048009161 0.03950328
2.5235057 1.0875157 0.50335699 6773595 -0.83754015 -0.41561711 -0.35466731 0.065590873
2.5157807 1.1085191 0.50143945 7628136 -0.99305391 -0.088594064 0.077428065 0.03951247
2.4985261 1.118932 0.50130534 7365469 -0.99510664 0.09878391 -0.002140254 0.031413075
2.5078025 1.1154183 0.50382262 6707536 -0.83927292 -0.39588445 -0.37268826 0.064724401
2.4606788 -1.2677408 0.51014602 9076855 -0.96610749 0.22686858 -0.12315464 0.034459237
2.461154 -1.2492793 0.51091683 9273464 -0.97231805 0.20383689 -0.11422864 0.032329749
2.4616289 -1.2308177 0.51168764 9470843 -0.99142742 0.027074749 -0.12782274 0.043347966
2.4950876 -1.2219908 0.51277924 10192774 -0.98585367 0.10807239 -0.12811345 0.058300596
2.4621041 -1.2123561 0.51245844 9799807 -0.97188908 0.031416945 -0.23333365 0.03707568
2.4954629 -1.2028567 0.51357341 10324875 -0.98002648 -0.0072673019 -0.19873433 0.054119773
2.462579 -1.1938944 0.51322925 9931394 -0.91592634 0.26610684 -0.30044335 0.043145008
2.4630542 -1.1754327 0.51400018 10129289 -0.85227108 0.46884099 -0.23199624 0.042536281
2.4778774 -1.1755582 0.51179969 10588047 -0.96965688 -0.077804901 -0.23175818 0.033555999
2.4855666 -1.1750445 0.51006263 10261129 -0.98588806 0.11027119 -0.12595615 0.038821872
2.4810169 -1.1647413 0.51577568 10457738 -0.82476145 0.48908538 -0.28383821 0.053889815
2.4782503 -1.156561 0.51258826 10851469 -0.99228913 0.054782495 -0.11118104 0.081685007
2.4860449 -1.1560349 0.51030719 10654867 -0.97655761 -0.14164367 -0.16208722 0.046220925
2.4814951 -1.1461502 0.51655197 10458254 -0.82048738 0.41244605 -0.39583924 0.069641933
2.4786229 -1.1375641 0.51337671 11048343 -0.96772701 0.21294434 -0.13475615 0.099516846
2.4994676 -1.1350708 0.51834357 10132886 -0.91659635 0.054332502 -0.39610505 0.064833663
2.4789956 -1.1185669 0.51416522 8883082 -0.99570447 -0.058292497 0.071935043 0.10131972
2.4999495 -1.1163504 0.51912522 7820664 -0.85837126 -0.022011256 -0.51255673 0.044476617
2.4613967 -1.0919535 0.5123632 12230281 -0.9768346 -0.14397278 -0.15832284 0.049784578
2.4829304 -1.0903774 0.51888061 10787732 -0.82456666 0.11790617 -0.55334252 0.051294159
2.4797411 -1.0805725 0.51574218 11443101 -0.96875149 -0.23728742 -0.072216839 0.06278865
1.7458322 -1.0796072 0.51459181 8483437 -0.79059172 -0.25959089 0.55459666 0.023570709
2.4879582 -1.0799968 0.5112856 10984600 -0.97180539 0.19718011 -0.12928391 0.032130469
1.7465101 -1.0663599 0.51456934 10328741 -0.81205493 -0.25585544 0.52450436 0.021009961
2.4842753 -1.0612813 0.51403046 11181469 -0.99273854 0.097165287 -0.070915796 0.039487775
1.728496 -1.0427996 0.51523322 6841184 -0.85499197 -0.21321189 0.47278902 0.027441248
2.4847007 -1.0422781 0.51454699 11312539 -0.99884665 0.00042055635 -0.048012797 0.029272888
1.7385166 -1.0347772 0.51486778 6972253 -0.83518785 -0.14328529 0.53097141 0.034613654
2.4851265 -1.0232747 0.51506352 11509919 -0.99377799 0.0091229491 -0.11100502 0.039918341
1.7071729 -1.0135226 0.51187277 8220275 -0.80737722 0.55702412 0.19459249 0.048350651
1.7253571 -1.0120771 0.51544392 7432809 -0.91360295 0.30703881 0.26656482 0.056901518
1.7055809 -1.0023589 0.51264554 8023923 -0.88017327 0.45295852 0.1418575 0.025944119
2.4855518 -1.0042714 0.51558006 11641761 -0.98359448 0.019846121 -0.17929873 0.042087842
1.7040603 -0.99124771 0.51304203 7893872 -0.94174957 0.33500591 -0.02964605 0.026894072
1.7166737 -0.99222517 0.51482749 8352631 -0.77135342 0.57507503 0.27258515 0.040163234
1.7217276 -0.99683142 0.515365 7564648 -0.94209296 0.2574307 0.21491931 0.058292508
1.7311796 -0.99035794 0.51514435 6906458 -0.93959999 0.25432643 0.22906338 0.095841751
2.4816048 -0.98558694 0.51968467 11969447 -0.93010247 0.070814192 -0.36040905 0.052907862
2.4721999 -0.9781425 0.51081461 11643043 -0.98490983 -0.10370708 -0.13855493 0.032777801
2.4726748 -0.95927 0.51105744 11774629 -0.98905033 -0.048165217 -0.13949788 0.03640794
2.4731498 -0.9403975 0.51130027 11906215 -0.99724907 -0.0078256493 -0.073710449 0.044676233
2.4647272 -0.92221242 0.5194084 12299182 -0.98807353 -0.017196624 -0.15301991 0.05173764
2.4736247 -0.92152506 0.51154315 11971754 -0.99640912 -0.0025027194 -0.084632196 0.034554847
2.4740996 -0.90265256 0.51178598 11906475 -0.99715883 -0.02223381 -0.071971625 0.029417301
2.4745743 -0.88378012 0.51202881 11972268 -0.99632347 -0.075389698 -0.040693246 0.020750761
2.5022511 -0.8721199 0.51098728 11840171 -0.99805713 0.061506577 0.0099485079 0.042661779
2.4750493 -0.86490768 0.51227164 12037548 -0.99835312 -0.022999449 0.052555408 0.010382035
2.5027328 -0.85339952 0.51176882 12103343 -0.99989003 -0.01363557 0.0058315247 0.043390475
2.4755242 -0.84603524 0.51251447 12169133 -0.99685651 0.05856245 0.053362396 0.011155
2.4759991 -0.82716274 0.5127573 12498099 -0.99816489 0.025272859 0.055028956 0.011534829
2.4856944 -0.8292436 0.5115751 12366772 -0.98793542 -0.1535646 -0.020037472 0.020405339
2.4861727 -0.81065261 0.51235139 12629946 -0.99125957 -0.05979263 -0.11759831 0.034381576
2.476474 -0.8082903 0.51300013 12695737 -0.99341583 0.024140839 0.11199242 0
2.4866512 -0.79206163 0.51312757 12826812 -0.9828797 0.034479234 -0.18099385 0.033472907
2.476949 -0.7894178 0.51324296 12893116 -0.99746376 0.043637261 0.056230091 0.011442468
2.4774239 -0.7705453 0.51348579 12958909 -0.99844658 0.010882078 0.054645136 0.011458415
2.5046597 -0.77851802 0.51489544 12827325 -0.98299521 0.0052615111 -0.18355611 0.033539362
2.4778988 -0.75167286 0.51372862 12893116 -0.99820852 -0.011618958 0.058692332 0.010812109
2.4865036 -0.75584978 0.51241922 12892606 -0.99907678 -0.0021781893 -0.042904872 0.026345368
2.4783738 -0.73280042 0.51397145 12958911 -0.99632633 -0.058946934 0.062122799 0.019301025
2.4880865 -0.73628861 0.51545632 12761534 -0.98820311 -0.0037682729 -0.15310284 0.04502625
2.4885647 -0.71769762 0.51623249 12827073 -0.9861334 0.075554252 -0.14775816 0.036615856
2.4606504 -0.7090404 0.5124957 12958911 -0.9992432 -0.018793011 -0.03405663 0.034336828
2.5065866 -0.70363665 0.51802194 13024706 -0.98714256 0.065504797 -0.14580344 0.036512405
2.4611218 -0.69030505 0.5127368 12959679 -0.9948715 0.10048354 -0.011565671 0.037603784
2.4865172 -0.69982857 0.51252389 13417670 -0.99873894 0.048987847 0.010985949 0.024977194
2.4895215 -0.68051559 0.51778495 13024706 -0.96935815 0.07213968 -0.23482034 0.043330394
2.4688642 -0.67623496 0.51073372 13549256 -0.99973553 -0.019149493 0.012732521 0.024356673
2.4797986 -0.67618304 0.51469994 13091267 -0.99602395 0.089074947 -0.0014128537 0.037899602
2.49 -0.6619246 0.51856112 13024706 -0.96952868 0.001276793 -0.24497451 0.036841922
2.4692342 -0.65737486 0.51151651 13484233 -0.99970657 -0.021982038 0.010181885 0.011711591
2.4802735 -0.65731055 0.51494277 13157060 -0.99944818 0.030577689 0.012973659 0.032058924
2.4696043 -0.63851464 0.5122993 13418441 -0.99006081 0.13890699 0.022011535 0.018958451
2.4807482 -0.63843811 0.51518559 13090499 -0.99775147 0.030917978 -0.059464648 0.024082206
2.4699745 -0.61965454 0.51308215 13550026 -0.98418194 0.16241564 -0.070760846 0.031932231
2.4812231 -0.61956561 0.51542842 13091269 -0.99493885 0.098223008 0.021188 0.018976275
2.4850395 -0.60276794 0.51606882 13353159 -0.9863379 0.16286573 -0.024745876 0.020638715
2.4707146 -0.58193421 0.51464772 13680842 -0.9723087 0.078893736 -0.21998097 0.039097421
2.482173 -0.58182067 0.51591414 13091269 -0.99340636 0.02377357 0.11215479 0
2.4858871 -0.56489843 0.51710021 13419465 -0.9944526 -0.029837646 -0.10086519 0.025158569
2.486311 -0.54596364 0.5176158 13485258 -0.99329901 0.033790037 -0.11052275 0.032028515
2.4653649 -0.52168661 0.51490641 13354441 -0.96641231 0.088056974 -0.24143989 0.048352305
2.4898717 -0.52885437 0.5196203 13878222 -0.98800379 -0.013430539 -0.15384459 0.052593149
2.4721947 -0.50649369 0.51777899 13878222 -0.98859972 -0.14596438 -0.036947384 0.050306421
2.4840727 -0.50633085 0.51688546 13486027 -0.96055716 0.14755228 -0.23570819 0.056020819
2.4725647 -0.48763356 0.51856172 13944014 -0.97746778 -0.20640214 0.044215292 0.031569652
2.4845476 -0.48745835 0.51712829 13486027 -0.97073185 0.19702837 -0.13733014 0.053915348
2.4729347 -0.46877342 0.51934457 13878992 -0.99372298 -0.039244995 0.10475896 0.041036967
2.4850225 -0.46858588 0.51737118 13420234 -0.99325234 0.069998279 -0.092466667 0.051406872
2.4854975 -0.44971347 0.51761401 13288648 -0.99952632 -0.0017964973 -0.030723367 0.046785235
2.5093699 -0.44068575 0.51066566 13221831 -0.98798931 -0.14777732 -0.045155957 0.019508509
2.4859724 -0.430841 0.51785684 13420234 -0.99928111 0.037909072 0.00052133948 0.036769863
2.4864473 -0.41196853 0.51809967 13354441 -0.99086303 0.13455525 -0.0092402548 0.030750096
2.4922857 -0.41938186 0.51047945 13353418 -0.97508174 -0.1365751 -0.17482251 0.029632475
2.4927642 -0.40079087 0.51125574 13419210 -0.97083127 -0.092845716 -0.22105752 0.041734453
2.486922 -0.39309603 0.51834249 13420234 -0.994192 0.087513156 -0.062639587 0.03135255
2.4932425 -0.38219994 0.51203191 13222855 -0.97641915 -0.020647833 -0.21489367 0.040208448
2.487397 -0.37422356 0.51858532 13288648 -0.99681067 -0.049522888 -0.062577724 0.030130425
2.493721 -0.36360896 0.51280808 13091269 -0.9674173 0.14846948 -0.2050871 0.042663448
2.4878719 -0.35535109 0.51882815 13288648 -0.99535245 -0.095801167 -0.0097837308 0.028668206
2.4941993 -0.34501797 0.51358438 13091269 -0.95925963 0.15221587 -0.23801541 0.051989917
2.4883468 -0.33647862 0.51907098 13157062 -0.99570704 0.022893704 0.089685053 0.013278528
2.5122602 -0.3283636 0.51535535 12827843 -0.99095023 0.017771099 -0.13304852 0.06414783
2.4888217 -0.31760615 0.51931381 13222085 -0.99528337 0.055306349 0.079701617 0.011827748
2.495156 -0.30783594 0.51513684 12893636 -0.98707515 0.098471269 -0.12643626 0.065407827
2.4892967 -0.29873371 0.51955664 13156292 -0.99240178 0.11747696 0.036576357 0.022220353
2.5132236 -0.29092288 0.51691866 12696257 -0.98404402 0.14724989 -0.09987431 0.071794786
2.4940388 -0.28109014 0.51088262 13417670 -0.99419469 0.088763751 -0.060812104 0.05808505
2.4897716 -0.27986124 0.51979947 13024706 -0.99510223 0.056451924 0.081146561 0.024244951
2.5137055 -0.27220249 0.51770031 12827843 -0.99053323 0.044703152 -0.12979043 0.068388671
2.4944117 -0.26209304 0.51167107 13352647 -0.97541231 0.21982376 -0.015759312 0.036736753
2.5141871 -0.25348216 0.51848185 12762304 -0.99136388 0.085976787 -0.099024102 0.07388632
2.4947844 -0.24309587 0.51245964 13286855 -0.97490007 0.099687554 -0.1990785 0.036293332
2.5146689 -0.23476179 0.51926351 12630718 -0.99087524 0.022100314 -0.1329584 0.066101655
2.495157 -0.22409874 0.51324809 13221061 -0.93679982 0.072261915 -0.34232193 0.062280115
2.4955299 -0.20510158 0.51403654 13155268 -0.93524784 0.0075798277 -0.35391247 0.054132923
2.4980264 -0.19629002 0.51979423 12630464 -0.97732556 -0.15197316 0.14744119 0.046566356
2.4778118 -0.18507572 0.5122354 13155269 -0.91667509 0.072667666 -0.39297107 0.047226217
2.4977663 -0.091118805 0.51876754 1314079 -0.93329608 0.15372206 -0.32454258 0.085351437
2.4619253 -0.07170818 0.51430845 1182736 -0.93520528 0.22155972 -0.27622876 0.092831813
2.4622924 -0.052985035 0.51508558 1507328 -0.93508196 0.22176532 -0.27648133 0.092744641
2.480772 -0.034194645 0.51849788 12955294 -0.92686141 0.28478509 -0.24459253 0.096460201
2.4993556 0.0090708174 0.51016009 11905972 -0.95816386 0.24982336 -0.13967964 0.03991786
2.4998338 0.027661812 0.51093626 11839921 -0.99854785 0.051394276 -0.016153485 0.037439387
2.5003123 0.046252795 0.51171255 11774128 -0.99030805 0.035410151 0.13429832 0.018409468
2.5007906 0.064843781 0.51248872 11576749 -0.98188496 0.014428912 0.18892792 0.008913843
2.5012691 0.083434753 0.51326501 11643053 -0.97150075 0.076530665 0.22434214 0.021468049
2.5017474 0.10202574 0.51404119 11445672 -0.99826777 0.054337032 0.022563398 0.061377678
2.5022259 0.12061674 0.51481748 11511467 -0.98107201 -0.1619603 -0.10614408 0.053692129
2.5027041 0.13920774 0.51559365 11510956 -0.97774172 -0.0191554 -0.20893605 0.031690102
2.5031826 0.15779872 0.51636994 11510956 -0.9929989 0.05783755 -0.1029954 0.045638572
2.5036609 0.17638968 0.51714611 11445163 -0.99862719 0.025736287 -0.045622081 0.04806906
2.5161171 0.18303739 0.51111948 10985121 -0.98626822 0.162084 0.031684309 0.021897923
2.5041394 0.1949807 0.5179224 11248041 -0.98739982 0.14905126 0.053153634 0.044243012
2.5172904 0.20102523 0.51278543 10985121 -0.99719381 0.072080165 -0.020223141 0.021870278
2.5046177 0.21357168 0.51869857 11247782 -0.98706937 0.13720086 0.082885392 0.034321964
2.5184636 0.21901302 0.51445138 10853533 -0.99960744 -0.027991813 0.0011730492 0.024674008
2.5196369 0.23700081 0.51611733 10787740 -0.99660337 -0.070290178 0.042906161 0.022876669
2.5208101 0.25498867 0.51778316 10787740 -0.99403739 -0.06478329 0.087709174 0.022939879
2.4860194 0.26836315 0.51217151 1575184 -0.98154318 -0.062918723 -0.18059437 0.017743891
2.5219834 0.27297646 0.51944911 10656154 -0.99093246 -0.024908857 0.13203233 0.023220005
2.5045424 0.28962526 0.51554924 11970464 -0.98964864 -0.013561688 -0.14286931 0.016214155
2.5220037 0.36495239 0.51090068 10655643 -0.99156255 0.069118224 -0.10966481 0.053613439
2.5229976 0.38286683 0.51248729 10326932 -0.99111831 0.1133025 -0.069620699 0.051779285
2.5241709 0.40085462 0.51415312 10326932 -0.90549076 -0.084120266 -0.41594508 0.11543562
2.505228 0.41871455 0.51002556 10590104 -0.9352265 -0.0094320225 -0.35392436 0.051292941
2.5253441 0.41884246 0.51581907 10195346 -0.88013321 -0.22348094 -0.41883385 0.08551123
2.5236077 0.4221825 0.5100224 10524057 -0.99791068 -0.026599435 -0.058879886 0.064056911
2.506927 0.43542773 0.51362336 10326932 -0.89814675 0.025418183 -0.43896046 0.058235358
2.509316 0.45112756 0.51863241 10129553 -0.86504304 -0.27291995 -0.42096943 0.085631959
2.5245712 0.45962322 0.51158559 10458007 -0.98662156 0.10812118 -0.1220155 0.046879154
2.5245748 0.46007356 0.51220298 10524311 -0.9091934 0.39570335 -0.12956136 0.090415321
2.525053 0.47871333 0.51240742 10326679 -0.99968648 -0.022009002 -0.011938957 0.07303676
2.5255332 0.49757829 0.5129205 10260630 -0.97780913 -0.20936401 0.007486857 0.051395666
2.5076027 0.5130769 0.51123977 10326932 -0.99557811 -0.0017821963 0.093920872 0.068495318
2.5260162 0.51578438 0.5139305 10260628 -0.98997289 -0.07989563 -0.11649205 0.039841
2.5080776 0.53194934 0.5114826 10261139 -0.98750323 0.12998453 0.089114793 0.059612058
2.5264981 0.53450471 0.5147121 10194581 -0.99965966 -0.024804797 0.0080796331 0.037565067
2.5091584 0.54237258 0.51006627 9866381 -0.99765843 0.051663943 0.044816826 0.017409736
2.5269732 0.55417317 0.51445985 10260372 -0.9784959 0.20594496 -0.011508192 0.043304287
2.5103233 0.56023169 0.51172018 9932172 -0.99901283 -0.026979491 -0.035292149 0.028376304
2.5272682 0.56071234 0.51013756 10522519 -0.99975652 0.021496771 0.0049873888 0.042856976
2.5114882 0.57809085 0.51337421 9669002 -0.98567188 0.14002168 0.094047248 0.050031479
2.5274534 0.5730381 0.51497298 10063249 -0.98903376 0.11833547 -0.088368349 0.043516047
2.4953365 0.59149414 0.51456463 9603209 -0.96937561 0.17178501 0.17550173 0.061773192
2.5279431 0.59066576 0.517057 9931663 -0.99543005 -0.0520049 -0.080090724 0.026245
2.5463445 0.59771407 0.51561928 9997967 -0.99151766 0.079056866 -0.10316392 0.062110927
2.5107305 0.60484242 0.51682663 9865870 -0.9950037 0.035788611 -0.093203843 0.022025574
2.5138178 0.61380899 0.51668227 9471623 -0.9381485 0.21686041 0.26990569 0.061779991
2.528398 0.61513233 0.51333988 10128014 -0.99755603 0.059173901 -0.037152879 0.048412085
2.5289066 0.62810647 0.51862025 9930893 -0.99565184 -0.0044001499 -0.093048707 0.02165222
2.5288801 0.63115948 0.51440436 9865866 -0.99650526 0.04952722 -0.067264214 0.051201474
2.5333979 0.6366598 0.51885271 9471112 -0.98743576 -0.12312444 0.099051058 0.070141822
2.5161474 0.64952731 0.51999032 9405830 -0.94324708 -0.32557389 0.065472573 0.070534192
2.5293884 0.6468268 0.51940191 9734284 -0.99553013 0.00040242731 -0.094443567 0.02322593
2.5469663 0.64212257 0.51587462 10258831 -0.99431813 0.039536003 -0.098834708 0.042302959
2.5292518 0.65327597 0.51437867 10062221 -0.98839945 0.11877753 -0.094648898 0.038059428
2.5121655 0.66061538 0.51915538 9602698 -0.9925369 -0.073906809 -0.096996263 0.018438961
2.5298369 0.66917861 0.51489353 9800073 -0.97542918 0.14511105 -0.16577347 0.049970344
2.5126441 0.67920637 0.51993155 9536905 -0.99462533 -0.043041181 -0.094169796 0.01862623
2.5295205 0.67551714 0.51490265 10193038 -0.99649572 -0.045464654 -0.070209078 0.046285316
2.5303152 0.68818814 0.51513815 9603209 -0.967421 -0.0127437 -0.25285211 0.060383204
2.5481007 0.69993603 0.51827419 9995405 -0.99980336 0.019683857 -0.0024099906 0.025046527
2.5302713 0.71378541 0.516491 9929614 -0.99939668 -0.028514035 0.01983179 0.025150668
2.5492353 0.71259397 0.51709741 9471623 -0.95140159 -0.029562877 -0.30653083 0.040410247
2.4986508 0.73533434 0.5109849 8945279 -0.9888891 0.077478833 0.12686768 0.071312562
2.5306468 0.73291951 0.51728517 9667210 -0.99509025 -0.098957926 0.0016480964 0.020637805
2.5497172 0.73174053 0.51734376 9471112 -0.95407701 -0.1982213 -0.2246004 0.045574207
2.5317502 0.74521679 0.51587194 9274244 -0.92386377 -0.32811972 -0.19701096 0.039925415
2.5171547 0.75863147 0.51307809 8879743 -0.98721337 -0.0059649744 0.15929279 0.06686566
2.5310223 0.75205368 0.51807934 9601417 -0.99730366 -0.054582201 -0.049054138 0.021764437
2.5322287 0.76422638 0.5161165 9273731 -0.96322751 -0.20793252 -0.1701674 0.042607412
2.5009646 0.77081031 0.51427054 8813693 -0.97242683 0.11003305 0.20561819 0.039984796
2.5142515 0.77729142 0.51463938 9207940 -0.97150964 -0.014324275 -0.23656701 0.039213762
2.5313976 0.77118784 0.51887357 9535624 -0.98235124 0.00011752266 -0.18704584 0.033895008
2.5171053 0.79525673 0.51563418 8879231 -0.99697727 0.023331659 -0.074107863 0.031104796
2.5317731 0.79032195 0.51966774 9404038 -0.96492457 0.069991052 -0.2530255 0.031367388
2.5206492 0.81220871 0.51804018 8682364 -0.98256004 0.084384292 0.16569556 0.02069702
2.5336637 0.82125503 0.51685035 9076611 -0.96309417 0.01199758 -0.26889724 0.033028189
2.515676 0.83390874 0.51536793 8879745 -0.98927933 0.036939319 -0.14128712 0.039705873
2.5218141 0.83006793 0.51969421 8550778 -0.94198686 0.24594645 0.22840993 0.028127063
2.516151 0.8527813 0.51561075 8945025 -0.98019457 -0.069997028 -0.18525426 0.052303746
2.5350988 0.87828362 0.51758409 8944768 -0.90499038 -0.10756376 -0.41160971 0.047741111
2.5139732 0.88456714 0.51029742 8878721 -0.99934489 -0.013748785 -0.033479355 0.039584458
2.4967313 0.8965385 0.51010168 8681853 -0.98806649 -0.147669 -0.043800443 0.028896032
2.5171008 0.89052624 0.51609641 8813439 -0.93065947 -0.099630654 -0.35206068 0.037548814
2.5175757 0.90939862 0.51633924 8681853 -0.9171862 -0.062880747 -0.393466 0.049511578
1.972797 0.91281074 0.51987678 4861465 0.011357062 -0.99285567 -0.11877979 0.0056101144
2.0149746 0.9171347 0.51723462 6044719 -0.24512428 -0.96554476 -0.087391965 0.027007366
2.4972062 0.9150002 0.51087248 8616060 -0.98885357 -0.14866637 -0.0081846714 0.031585578
1.7543774 0.92157155 0.513906 5781021 0.11295472 -0.9933607 0.021809883 0.0023441231
1.7943372 0.92729348 0.51744467 5977885 0.088551208 -0.99505001 0.045102552 0.0035539374
1.8334146 0.92699838 0.51394665 6306341 0.086544067 -0.99622315 -0.007036089 0.0072017331
1.8612543 0.9276343 0.51284313 5978400 0.0011648947 -0.99975473 0.022116972 0.003193341
1.8913308 0.92937088 0.51453441 6044961 0.051551469 -0.99725831 0.053088203 0.0059836078
1.911954 0.92593521 0.5155074 6110500 0.048712645 -0.99873364 0.01257737 0.0084222294
1.9830068 0.92745644 0.5122636 5781799 -0.28488544 -0.95719892 -0.051093426 0.039377805
1.9996648 0.9271431 0.51574826 6571063 -0.32115456 -0.94551361 -0.053514808 0.024791751
2.0053353 0.92340434 0.51472199 6373423 -0.3867507 -0.91511399 -0.11397499 0.041185282
2.5180507 0.92827111 0.51658207 8550267 -0.9546603 0.1035741 -0.27909878 0.027614038
2.5401199 0.92839205 0.51159251 8287610 -0.98465288 0.019880276 0.17338826 0.096948043
1.8146048 0.9305011 0.51191109 6174243 0.082908012 -0.99627542 -0.02369706 0.0065577207
1.849026 0.93015718 0.51085585 5978916 0.055102043 -0.99847525 0.0033188278 0.0074644899
1.8786558 0.9316476 0.51440394 6175525 0.070504658 -0.99733418 -0.018804541 0.010698621
1.8925442 0.93111217 0.51290786 6569515 0.035027452 -0.99904758 0.026020726 0.0065806936
1.9093081 0.93321675 0.51807481 6176297 0.053344771 -0.99819088 0.027737666 0.01322154
1.9237932 0.9327507 0.5182181 6503728 0.011331165 -0.99885643 -0.046448253 0.0067090755
1.965086 0.93825465 0.51886868 6044456 -0.088274144 -0.98656583 -0.13746119 0.016331207
1.9748112 0.93399501 0.51174706 5978917 -0.14564489 -0.9890123 -0.025341896 0.012841178
1.9867362 0.93448478 0.51988345 5978914 -0.30119011 -0.94666898 -0.11446562 0.030291101
2.4976814 0.93346196 0.51164329 8352890 -0.99962437 -0.025871187 0.0090500275 0.02513939
2.5228212 0.93917215 0.5127821 8221815 -0.99973226 0.01988803 0.011830717 0.080412552
2.5185256 0.9471435 0.5168249 8484474 -0.97820944 -0.041225839 -0.20348679 0.05689913
2.4981565 0.95192355 0.51241416 8418683 -0.9990077 0.043612771 0.0090301195 0.022817964
2.5239861 0.95703125 0.51443613 8156020 -0.99731034 0.0056428462 -0.073077679 0.062482286
2.5190005 0.96601611 0.51706779 8484474 -0.93793172 -0.25874212 -0.23094715 0.068174012
2.4986315 0.97038513 0.51318496 8287097 -0.99843943 0.05098851 -0.02278018 0.022681959
2.5009818 0.97743583 0.51556945 8287097 -0.8955397 -0.37642586 -0.23730208 0.057533253
2.525151 0.97489035 0.51609004 8155763 -0.99540359 0.095004015 0.012084991 0.063285716
2.4991066 0.98884672 0.51395583 8155511 -0.99347275 0.11271396 -0.017534152 0.02011162
2.5014534 0.99617141 0.51581049 8221045 -0.88230252 -0.37600356 -0.28313193 0.06634225
2.5263157 0.99274951 0.51774406 8089457 -0.99439603 -0.085064471 -0.06277439 0.066030368
2.4995816 1.0073082 0.51472664 8155511 -0.99439591 0.08843898 -0.057925034 0.019804366
2.5019248 1.0149068 0.51605153 8155250 -0.9268378 -0.27266479 -0.25811929 0.065120906
2.5274806 1.0106086 0.51939809 7958384 -0.99611282 -0.06768664 0.056371272 0.067223452
2.4849203 1.0262154 0.51464325 8023666 -0.96048552 -0.18247424 -0.21016853 0.068026453
2.5000567 1.0257699 0.51549745 8023412 -0.98620927 0.15579429 -0.05585197 0.020172914
2.4853885 1.0448211 0.51488268 7958132 -0.95087224 -0.080416411 -0.29895675 0.051698655
2.5005317 1.0442315 0.51626825 7891826 -0.97936064 0.1856584 -0.079898506 0.03224168
2.4858568 1.0634271 0.51512206 7760494 -0.96988267 0.17658573 -0.1677649 0.059279151
2.5187571 1.0704771 0.51805973 7760494 -0.99550211 0.018397842 -0.092935942 0.034180854
2.4863248 1.082033 0.51536149 7759722 -0.96846235 0.22989558 -0.096066728 0.061024841
2.5192354 1.0890681 0.5188359 7694701 -0.99972647 -0.015042744 0.017910438 0.036622092
2.5099072 1.0939667 0.51039684 7432040 -0.8463403 -0.30774772 -0.43474069 0.086094514
2.486793 1.1006389 0.51560092 7628389 -0.95053476 0.2955963 -0.095428176 0.05815037
2.5194635 1.107882 0.51554513 7759209 -0.98462516 0.16943718 -0.042477027 0.040609337
2.5110641 1.1117046 0.51203954 7299939 -0.81708199 -0.36639139 -0.4451229 0.072250277
2.4947889 1.1213133 0.51322472 7102811 -0.90858716 -0.014865042 -0.41743082 0.043193005
2.5195858 1.1271023 0.51226664 7692389 -0.90674585 0.37190551 -0.19874161 0.039536577
2.4452031 -1.3333714 0.52403188 8551023 -0.99652284 -0.08321967 -0.0040868227 0.027429625
2.4456749 -1.3150393 0.52479732 8879222 -0.99410653 0.081561595 -0.07141386 0.020999134
2.4657669 -1.3181413 0.52520239 9011319 -0.90249735 0.41304955 -0.12201893 0.070818752
2.4579997 -1.3002107 0.52260351 9338230 -0.94350374 0.26048997 -0.20480661 0.034968518
2.4843488 -1.3084081 0.52724546 9207671 -0.95065624 0.20189172 -0.23556869 0.037074104
2.4461467 -1.296707 0.52556276 8945268 -0.99026126 0.097623155 -0.09925922 0.021721361
2.4763193 -1.2903426 0.52605695 9469816 -0.92838228 0.30772766 -0.20835075 0.037045266
2.484827 -1.2893987 0.52749008 9142647 -0.97020704 0.16368888 -0.17861757 0.028658068
2.4466183 -1.2783746 0.52632821 9207671 -0.9766255 0.20253316 -0.071992695 0.023881279
2.476692 -1.2713454 0.52684546 9601148 -0.95171112 0.25622427 -0.1691009 0.047341302
2.4853055 -1.2703891 0.52773464 9208440 -0.97995669 0.00052241934 -0.19921002 0.018538278
2.4645846 -1.2685949 0.52819228 9207671 -0.97793561 0.2058294 -0.035724297 0.026489712
2.4650598 -1.2501333 0.52896309 9339256 -0.97156429 0.2357105 -0.022435665 0.03344544
2.4770646 -1.2523483 0.52763391 9732987 -0.97650796 0.068229377 -0.20439443 0.045665406
2.4857838 -1.2513796 0.52797925 9340026 -0.98412228 0.0051466157 -0.17741728 0.028245902
2.4655347 -1.2316717 0.5297339 9602428 -0.99611837 -0.019527037 -0.08583083 0.048875507
2.4774373 -1.233351 0.52842247 9995646 -0.979505 0.064499937 -0.19081359 0.050410647
2.4681416 -1.223779 0.5264166 9668991 -0.98524439 0.10622511 -0.13420025 0.035714988
2.4778101 -1.2143539 0.52921093 10258819 -0.94047135 0.1306026 -0.31377798 0.044541288
2.4485052 -1.2050457 0.52938986 9865600 -0.97571564 0.03798994 -0.21572168 0.032371037
2.4686165 -1.2049066 0.52665943 10062980 -0.97275597 0.23011947 -0.028123187 0.034776937
2.4781828 -1.1953567 0.52999938 10455946 -0.98011887 -0.0034862068 -0.19838071 0.049194366
2.4872189 -1.1943508 0.52871305 10194566 -0.98080057 0.19207628 0.033719245 0.035783563
2.4876974 -1.1753412 0.52895766 10326921 -0.98637342 0.16282478 0.023570992 0.034006704
2.4881756 -1.1563317 0.52920222 10524051 -0.97489625 -0.22257252 0.0062267855 0.030030869
2.4886539 -1.1373223 0.52944684 10655635 -0.9616192 -0.27181131 -0.037513047 0.023311617
2.4709909 -1.1105442 0.52787364 8156549 -0.98226011 -0.06518203 -0.17583074 0.048494779
2.4714658 -1.0916718 0.52811646 11770769 -0.9605667 0.19526741 -0.19794506 0.038952183
2.5009129 -1.0789096 0.52068853 10984600 -0.77954561 0.43060392 -0.45485049 0.06669876
2.519932 -1.0675948 0.52256823 11050395 -0.86594486 0.39282686 -0.30955872 0.06406828
2.5204172 -1.0487374 0.5233556 11247774 -0.95082968 0.2173132 -0.22067584 0.069295183
2.5209024 -1.0298803 0.52414298 11379617 -0.98246288 -0.093649931 -0.16123405 0.061602309
1.707641 -1.0140759 0.52498043 8220273 -0.83258194 0.50022566 0.23786905 0.047797967
2.5213878 -1.0110228 0.52493024 11444898 -0.99632567 -0.044201769 -0.073357657 0.05501318
1.7168857 -1.0059636 0.5274564 8549240 -0.75887543 0.56647295 0.32127336 0.025400233
1.7236646 -1.0081148 0.52734947 8090227 -0.86080259 0.48033181 0.16822691 0.045017928
1.6961083 -0.99945706 0.52455407 8024434 -0.94009519 0.33969724 -0.028754719 0.026212379
1.7055244 -0.99145156 0.52602482 8222067 -0.94047415 0.3386167 -0.029104918 0.025507273
1.7239971 -0.99519312 0.52788901 7761516 -0.92839742 0.35177985 0.11970454 0.039745875
2.4738405 -0.99730951 0.52933061 11577250 -0.97353512 -0.11661842 -0.19654427 0.03723276
2.5033214 -0.98530793 0.52459657 11642790 -0.95688295 -0.18135378 -0.22690491 0.069362126
2.4743154 -0.97843707 0.52957344 11642789 -0.98892725 -0.10917655 -0.10051568 0.043588147
2.5223582 -0.97330815 0.52650499 11708582 -0.93539482 -0.31742126 -0.15582117 0.073406503
2.4819775 -0.96658981 0.52047312 12035756 -0.92339587 -0.17608117 -0.34107992 0.029274942
2.4845538 -0.94462109 0.52317607 11905194 -0.93070102 -0.21944225 -0.29264432 0.033580881
2.4872358 -0.92305851 0.52586663 11971755 -0.98094112 0.070557334 -0.1810421 0.028430412
2.485405 -0.90703297 0.52474076 11970987 -0.98809171 0.018717701 -0.15272343 0.040868953
2.4834683 -0.89060128 0.52362716 12299182 -0.98229975 -0.094890699 -0.16150273 0.037378743
2.4881926 -0.88587648 0.52741909 11905964 -0.97431052 0.20794511 -0.086474977 0.036761541
2.4658372 -0.865632 0.52175683 12299443 -0.99644125 -0.080605023 -0.024653802 0.052143544
2.4886711 -0.86728549 0.52819538 11906221 -0.99799693 0.06256035 0.0094039589 0.039339367
2.4662073 -0.8467719 0.52253962 12430516 -0.9987874 0.049076274 -0.0039005722 0.044484835
2.4871073 -0.83185673 0.52787024 12628918 -0.9977693 -0.063468494 -0.020692734 0.03323647
2.4669473 -0.80905157 0.52410525 13088959 -0.99845427 -0.049775377 -0.024728436 0.030977732
2.4673173 -0.79019147 0.52488804 13023682 -0.99854457 -0.048573703 -0.023439094 0.032216184
2.4676874 -0.77133125 0.52567089 13220545 -0.99910432 0.040504951 0.012242449 0.012640949
2.4680574 -0.75247115 0.52645367 13286338 -0.99994546 0.0092831086 0.0047849151 0.013043641
2.4684274 -0.73361105 0.52723646 13286338 -0.99840754 0.047990978 -0.029653784 0.023187332
2.4687974 -0.71475095 0.52801931 13221059 -0.99910331 0.040463157 0.012464849 0.012639182
2.4691675 -0.69589072 0.52880204 13417670 -0.99830657 0.031009037 -0.049218118 0.022184202
2.4695375 -0.67703062 0.52958488 13549256 -0.99876726 -0.010628526 -0.04848684 0.02110121
2.5080316 -0.6474756 0.52036679 12958913 -0.97125757 0.06324669 -0.22947471 0.030874304
2.4909568 -0.62474269 0.52011359 13024706 -0.97716898 0.076544575 -0.19819641 0.033775195
2.4914351 -0.6061517 0.52088988 13024706 -0.98613077 0.066762492 -0.1519502 0.029512834
2.4919136 -0.58756071 0.52166605 13156038 -0.98336226 0.10284873 -0.14973582 0.027988698
2.5099585 -0.57259411 0.52349329 13287878 -0.97681767 -0.00037077445 -0.21407297 0.033167511
2.5104403 -0.55387384 0.52427495 13222855 -0.96910524 -0.037163291 -0.24383174 0.05381158
2.4933486 -0.53178775 0.5239948 13222601 -0.96709782 -0.035183221 -0.25196022 0.053029038
2.4938271 -0.51319677 0.52477098 13222601 -0.961891 0.17166209 -0.21283293 0.051335536
2.4943054 -0.49460578 0.52554727 13222855 -0.94816697 0.24308422 -0.20466928 0.043314502
2.5123672 -0.4789924 0.52740145 13288394 -0.98803401 0.042088259 -0.14838259 0.041182876
2.5128489 -0.46027207 0.5281831 13288394 -0.9644019 -0.12321426 -0.23398109 0.044131164
2.4733047 -0.44991335 0.52012742 13747406 -0.98190624 0.17058679 0.082221225 0.033349309
2.4736748 -0.43105319 0.52091014 13747406 -0.97286588 0.22863203 -0.035488721 0.043704376
2.4957407 -0.43883282 0.5278759 13222601 -0.95631051 -0.17596561 -0.23346597 0.025979701
2.4962189 -0.42024177 0.52865219 13222601 -0.97643954 -0.14922783 -0.15587474 0.047197398
2.4921081 -0.41487148 0.5243513 13813199 -0.9779259 0.17829631 -0.10895574 0.049169801
2.4966974 -0.40165079 0.52942836 13156808 -0.99021578 -0.10995984 -0.085916154 0.057497337
2.492481 -0.39587432 0.52513981 13681613 -0.98608208 0.081846878 -0.14471744 0.049187236
2.4795756 -0.38072908 0.52909946 13091016 -0.9924342 0.011532119 -0.12223492 0.058439739
2.4928536 -0.37687722 0.52592826 13747406 -0.97686392 0.013150744 -0.21345738 0.053816922
2.4800508 -0.36226749 0.52987039 13091015 -0.97315156 0.11644396 -0.19853699 0.050618287
2.4751549 -0.35561261 0.52404141 13747406 -0.95114815 0.0041928031 -0.30870643 0.04320671
2.4935989 -0.33888292 0.52750528 13550026 -0.89458299 0.01081246 -0.44677112 0.027196201
2.4939718 -0.31988582 0.52829373 13221062 -0.94993085 0.078073338 -0.30254921 0.049164549
2.476265 -0.29903221 0.52638984 13351877 -0.98916763 0.08481808 -0.11980489 0.057844799
2.4947171 -0.28189155 0.52987075 13417670 -0.97503728 0.2003523 -0.095715404 0.036947586
2.4902465 -0.26098877 0.5200423 13025476 -0.99787867 -0.064308003 -0.010132031 0.042730842
2.4907215 -0.24211629 0.52028513 12959683 -0.99472338 -0.1020859 -0.010188303 0.041817464
2.4911964 -0.22324382 0.52052796 12893120 -0.99723184 -0.044511784 0.059559725 0.037684776
2.5151505 -0.21604145 0.52004516 12696257 -0.9988113 -0.048343077 0.0062373281 0.070209347
2.4916713 -0.20437138 0.52077079 12958913 -0.99523586 0.056558404 0.07941556 0.011764614
2.4921463 -0.18549891 0.52101362 12762304 -0.99947685 0.032264479 -0.002257325 0.022973271
2.4985049 -0.17769903 0.5205704 12564671 -0.98860162 -0.071230792 0.13263878 0.05096928
2.4926212 -0.16662644 0.52125645 12630975 -0.99684453 0.0049385703 -0.079225555 0.025620162
2.4989831 -0.15910804 0.52134669 12499132 -0.98831064 0.15038605 0.025023162 0.037196063
2.4962788 -0.1441355 0.52181107 12433339 -0.98972183 0.13015218 -0.059253935 0.02227195
2.4935708 -0.12888151 0.52174211 12499132 -0.99703836 0.051757451 0.056883782 0.011318342
2.5175591 -0.12243968 0.52395332 12367546 -0.99163473 0.12526959 0.031115446 0.042791381
2.4940457 -0.11000906 0.52198499 12367546 -0.9947896 -0.04337123 0.092263892 0.010790899
2.5180409 -0.10371932 0.52473497 12301499 -0.9559586 -0.29344526 -0.0057491809 0.067785762
2.4945207 -0.09113659 0.52222782 12367546 -0.96480763 -0.24751498 0.088784412 0.020055968
2.4832709 -0.084489219 0.52338648 12170167 -0.87111366 -0.43314597 -0.23139909 0.04079793
2.4949956 -0.072264127 0.52247065 12301751 -0.96942967 -0.23366557 0.074876979 0.037322536
2.4837461 -0.066027597 0.52415729 12170167 -0.90494674 -0.33807805 -0.25840807 0.041591574
2.4771514 -0.053302195 0.52093315 12170163 -0.9970184 -0.05893578 0.049809027 0.048341651
2.484221 -0.047565982 0.52492809 11972788 -0.94345891 -0.050231032 -0.3276616 0.03523016
2.477623 -0.034566823 0.52117419 12038577 -0.997796 0.0017933398 0.066332735 0.036046617
2.4846961 -0.029104356 0.52569902 11905971 -0.96066982 0.035983246 -0.275352 0.05366591
2.4780943 -0.015831448 0.52141529 12037811 -0.99816769 0.03646639 0.048286587 0.036176551
2.4851711 -0.010642745 0.52646983 11840179 -0.94497466 0.21586095 -0.24581903 0.055066504
2.4856462 0.0078188777 0.52724063 11905459 -0.93314123 0.24851663 -0.25978258 0.039645113
2.4968953 0.0032257414 0.52344203 11906225 -0.99805224 -0.051694695 -0.034918685 0.036672194
2.4790373 0.021639306 0.52189744 11972018 -0.99993539 0.0092383809 -0.0066253385 0.032176111
2.503767 0.026801839 0.52910888 11839921 -0.94916749 0.24729016 -0.19475289 0.051157348
2.4795089 0.04037467 0.52213848 11840432 -0.9982186 -0.042690426 0.04168082 0.02377893
2.5042455 0.045392822 0.52988517 11774385 -0.9813745 0.18292773 -0.058664933 0.042785216
2.4799802 0.059110057 0.52237958 11774639 -0.99329972 0.023791719 0.11309118 0.00086425547
2.4870713 0.063203752 0.52955306 11642540 -0.99640989 0.080344342 0.026686238 0.029672652
2.464864 0.078076907 0.52052534 12167091 -0.97813529 0.035383914 -0.20493734 0.059285417
2.4804518 0.077845417 0.52262068 11774637 -0.99328339 0.023478862 0.11330038 0.00086412311
2.4809232 0.096580796 0.52286172 11642538 -0.9983384 0.032202631 0.04778558 0.01320023
2.4813948 0.11531617 0.52310276 11576999 -0.9987793 0.0019793774 0.049355723 0.013006524
2.4818661 0.13405156 0.52334386 11577258 -0.99833 0.032851025 0.047520511 0.013180124
2.4823375 0.15278694 0.52358496 11576747 -0.99969983 0.010303158 -0.022228934 0.019965902
2.4828091 0.17152229 0.523826 11445161 -0.99589831 0.055353109 -0.07157246 0.022826042
2.4832804 0.19025767 0.52406704 11314086 -0.9801349 0.16662043 -0.10757934 0.023265403
2.483752 0.20899305 0.52430809 11248293 -0.96827185 0.20655447 -0.14065909 0.021588745
2.5025942 0.22969536 0.52635598 11248293 -0.97128743 0.14372982 -0.18958522 0.018934032
2.5227511 0.23411301 0.52050507 11116196 -0.99856389 0.021468891 -0.049085274 0.04857979
2.5030692 0.24856783 0.52659881 11181987 -0.97857219 0.020519033 -0.20487906 0.025367834
2.5055745 0.25075364 0.52025104 11116196 -0.98695099 -0.13202359 -0.092182085 0.043464791
2.5047984 0.26839244 0.52393442 11115939 -0.98993587 -0.06498035 -0.125716 0.038775966
2.4856379 0.28393453 0.52527237 11182241 -0.99260962 0.077965856 -0.092991807 0.050618745
2.5065312 0.28793561 0.5218035 11115169 -0.9955883 0.086230025 -0.03699103 0.036704302
2.5231566 0.29096431 0.52111506 10590361 -0.99121797 0.040008999 0.12604088 0.032834735
2.4861093 0.30266991 0.52551347 11050653 -0.98115683 0.18037021 -0.069266841 0.055634305
2.5070097 0.3065266 0.52257967 10984097 -0.98722529 0.15874074 -0.013698505 0.032756079
2.5243297 0.30895209 0.52278101 10590363 -0.9935649 -0.0043618809 0.11318064 0.033258542
2.4865808 0.32140529 0.52575457 10985373 -0.9714973 0.1979827 -0.13036802 0.059316337
2.507488 0.32511759 0.52335596 10853024 -0.99094337 0.13189971 0.025174232 0.026552316
2.5255029 0.32693994 0.52444696 10590104 -0.99141681 0.027502637 -0.12781361 0.048993014
2.5072396 0.34288737 0.52582985 10721691 -0.99614823 0.073725425 -0.047468375 0.039697643
2.5094738 0.3598825 0.52719855 10327191 -0.96754456 -0.056529958 -0.24629644 0.096152298
2.5059185 0.36180258 0.52805585 10787483 -0.97638631 0.042416763 -0.21182701 0.035054788
2.5261233 0.36515552 0.52597654 10655643 -0.98649347 0.16178089 0.025642365 0.034409661
2.5076585 0.38078278 0.52699161 10589850 -0.99639034 0.058791153 -0.061235443 0.044064112
2.5290227 0.38090336 0.52944469 10392725 -0.85117233 -0.030984815 -0.52397108 0.081968524
2.5081348 0.3995145 0.52750123 10523802 -0.99353766 -0.11123615 -0.022569515 0.05167117
2.4889381 0.41508219 0.5269599 10589850 -0.97055441 -0.23042893 -0.070190296 0.038794674
2.5071514 0.42260525 0.52106869 10982300 -0.95497572 0.2923528 0.050510511 0.062467467
2.5275683 0.42131656 0.52832139 10523800 -0.99316669 -0.1039795 -0.052993376 0.051533725
2.4894094 0.43381751 0.52720094 10458518 -0.974738 0.0066377972 -0.22325259 0.063399896
2.5103583 0.43666351 0.52801335 10523798 -0.99999899 -0.00082535489 0.0011987538 0.044796042
2.5075243 0.44160235 0.52185714 10851484 -0.94424385 0.30317226 0.12841426 0.060577448
2.5285318 0.45875728 0.52988464 10392214 -0.99788362 0.048764423 -0.043016076 0.037333179
2.5078969 0.46059948 0.52264571 10785689 -0.96434814 0.24206488 -0.10694472 0.060824931
2.5104809 0.46898666 0.52028644 10063758 -0.86853999 -0.1883195 -0.45844755 0.079781577
2.4770262 0.47941428 0.52091932 10129038 -0.97515488 -0.12525488 -0.18271348 0.085800871
2.5264497 0.48336866 0.52608597 10850714 -0.97404063 0.10070071 -0.20274189 0.038059995
2.5089426 0.49625176 0.52698916 10588824 -0.97450101 -0.079267465 -0.20991524 0.085470177
