# .PCD v0.7 - Point Cloud Data file format
VERSION 0.7
FIELDS x y z rgb normal_x normal_y normal_z curvature
SIZE 4 4 4 4 4 4 4 4
TYPE F F F U F F F F
COUNT 1 1 1 1 1 1 1 1
WIDTH 523
HEIGHT 1
VIEWPOINT 0 0 0 1 0 0 0
POINTS 523
DATA ascii
1.3446115 -0.59367824 0.062800676 15063776 -0.083355397 0.018833347 0.99634194 0.0013376077
1.355812 -0.59712064 0.062518209 14997983 -0.12189082 -0.044336114 0.99155283 0.00091846375
1.3771423 -0.59408975 0.06726855 14998496 -0.096518502 -0.012983052 0.99524653 0.0029848914
1.382679 -0.59624434 0.06774959 14866399 -0.13174398 -0.055965409 0.9897027 0.0019862673
1.2446336 -0.58318621 0.06252645 14669270 -0.13553727 0.0023826105 0.99076939 0.0023225367
1.2970767 -0.58372051 0.065454558 14734809 -0.10008456 0.038475353 0.99423474 0.0039772326
1.3017912 -0.58863741 0.061237782 14932701 -0.075016133 0.028548589 0.9967736 0.0015237744
1.3398411 -0.58044934 0.064089745 15064287 -0.082038961 -0.012360349 0.99655253 0.0015830974
1.3560411 -0.58616334 0.063847572 14997983 -0.13840367 -0.043724287 0.98941028 0.001479347
1.3723792 -0.58067024 0.068512827 15064287 -0.099298328 -0.030091483 0.99460262 0.0018974718
1.3897005 -0.58760339 0.06720376 14866399 -0.13218355 -0.052293211 0.98984492 0.0021026114
1.2549778 -0.57720327 0.061076179 14669270 -0.14923425 0.056735311 0.9871729 0.0036788753
1.2970066 -0.57568246 0.062571704 14997981 -0.090794489 -0.005138346 0.9958564 0.0015700592
1.3295146 -0.5761264 0.060291052 14866397 -0.12390563 -0.040051341 0.99148542 0.00095838949
1.3562702 -0.5752061 0.065176994 14866399 -0.14407432 -0.036604986 0.98888963 0.0014830908
1.3790399 -0.57152557 0.067273408 14998496 -0.086065166 -0.023519231 0.99601191 0.0024353855
1.3899344 -0.57641166 0.068561614 14735324 -0.11730576 -0.024668641 0.99278951 0.0027071456
1.4260607 -0.57612079 0.069212914 14932701 -0.10433806 -0.013325098 0.99445266 0.0023612813
1.2556536 -0.56712312 0.061052158 14603223 -0.11699784 0.033529397 0.99256605 0.0019346537
1.2822707 -0.56712985 0.067591071 14734809 -0.12433422 0.065925062 0.99004793 0.003561001
1.3035957 -0.56718165 0.061242402 14932188 -0.083639458 -0.0055801887 0.99648046 0.0019252613
1.3297399 -0.56535059 0.06159842 14669531 -0.12239522 -0.071768299 0.98988318 0.00093957048
1.3440825 -0.56499314 0.063449964 14998495 -0.096895091 -0.031501062 0.99479604 0.0020597032
1.3564993 -0.5642488 0.066506416 14800604 -0.14995736 -0.041683577 0.98781341 0.0019461557
1.3799888 -0.56024349 0.067275852 14998496 -0.081509739 -0.016708173 0.9965325 0.0023851574
1.4270388 -0.56448948 0.069215417 14932703 -0.10652763 -0.023696 0.99402738 0.0024476333
1.2418034 -0.55123901 0.063168317 14669016 -0.091750748 0.0039978623 0.99577403 0.0018546553
1.2829597 -0.55685198 0.067566574 14603223 -0.11938156 0.065307394 0.99069828 0.003358508
1.2943183 -0.55066323 0.066055804 14537430 -0.14146015 0.050567631 0.98865157 0.0031426938
1.3357573 -0.55665946 0.061198682 14669531 -0.1020849 -0.053308405 0.99334633 0.0012937108
1.3625352 -0.55533612 0.066177368 14800606 -0.13613276 -0.024686361 0.99038303 0.0027567467
1.2570051 -0.54696268 0.061004117 14603223 -0.10352272 0.019063784 0.99444437 0.0015179382
1.2997835 -0.5428791 0.063967019 14669528 -0.12978292 0.0063710213 0.99152195 0.0027734542
1.3335892 -0.54459655 0.064590886 14735068 -0.10125479 -0.041298676 0.994003 0.0023227655
1.3685551 -0.54547966 0.067914084 14735067 -0.1071569 -0.02167172 0.99400592 0.0020575901
1.2625277 -0.53874111 0.060266525 14603223 -0.10105225 0.011988387 0.99480891 0.0013616015
1.3019633 -0.53312206 0.062852278 14537944 -0.12335415 -0.014808689 0.99225217 0.0024665666
1.3370185 -0.53473091 0.064605162 14669018 -0.095988125 -0.026970088 0.99501705 0.0025412003
1.3746126 -0.53723884 0.065552294 14537432 -0.1228361 0.001480229 0.99242586 0.0024440277
1.2535069 -0.52498168 0.061669737 14603223 -0.079191282 -0.028108619 0.99646312 0.0022948454
1.3049492 -0.52408803 0.061931551 14537430 -0.098780125 -0.017354928 0.99495792 0.0020438246
1.3318355 -0.52189106 0.06675142 14603224 -0.10662013 -0.01116201 0.99423712 0.0026831566
1.3817447 -0.52722561 0.06626974 14603225 -0.10962474 -0.015697118 0.99384904 0.0027785618
1.249328 -0.51315689 0.062359571 14603223 -0.066115402 -0.043662958 0.99685621 0.0013276902
1.2964021 -0.51957881 0.065981716 14537432 -0.13840237 -0.0016360348 0.99037474 0.0022527613
1.3099881 -0.51510525 0.061773032 14668759 -0.099675924 -0.015778452 0.99489486 0.0018924458
1.3339475 -0.51062459 0.066677213 14669016 -0.11303455 0.022582147 0.99333441 0.0032172152
1.3424579 -0.51527774 0.064765185 14406359 -0.085515141 -0.03085719 0.99585891 0.0025450145
1.3750765 -0.51505202 0.068244159 14471641 -0.13284785 -0.021630384 0.99090046 0.0024028223
1.3837841 -0.5151152 0.067285568 14734811 -0.094784573 -0.010537896 0.99544203 0.0027826999
1.2970966 -0.50921738 0.06595704 14537430 -0.12579203 -0.0086396541 0.992019 0.0023507585
1.309009 -0.50281459 0.06125626 14669529 -0.10462914 0.016188592 0.99437952 0.002788977
1.3102106 -0.50446552 0.06306389 14603225 -0.1036768 -0.019738281 0.99441522 0.0018737266
1.3484818 -0.50626898 0.064403921 14537432 -0.093073599 -0.023091985 0.99539143 0.0026154404
1.3753085 -0.50395858 0.069590032 14537434 -0.14180329 -0.037805617 0.9891727 0.002318125
1.2977912 -0.49885586 0.065932333 14537171 -0.11624311 -0.023112549 0.99295187 0.0019929211
1.3041936 -0.49022415 0.062590122 14734809 -0.11095606 -0.0078336932 0.99379444 0.0028290963
1.3162158 -0.49567813 0.062631965 14734298 -0.080333233 -0.0059061199 0.99675059 0.0015822994
1.3291389 -0.49785128 0.067966193 14800602 -0.14366452 0.0082131047 0.98959237 0.0026584186
1.3479489 -0.49326372 0.066982746 14603223 -0.10653045 0.010422529 0.99425489 0.0032589617
1.3545076 -0.49716938 0.064053744 14471639 -0.094352961 -0.021295488 0.99531102 0.0025399076
1.3761191 -0.49533558 0.069255337 14669018 -0.093946859 -0.0063752527 0.99555683 0.0028293692
1.2224973 -0.4832502 0.066452742 14537430 -0.1357334 0.0086496854 0.99070764 0.0030844791
1.2464801 -0.48147568 0.06300208 14602964 -0.072511718 -0.016151384 0.99723679 0.0013547223
1.2984859 -0.4884944 0.065907657 14537430 -0.11657616 -0.022710523 0.99292213 0.0018891207
1.3280065 -0.48860657 0.060493797 14603223 -0.081316084 -0.011057653 0.99662709 0.0016792164
1.3547367 -0.48621207 0.065383166 14537432 -0.10878029 0.0065669492 0.99404413 0.0025089933
1.292676 -0.47666296 0.063532993 14537430 -0.12389635 -0.0062057716 0.99227571 0.0019512783
1.3117156 -0.47063103 0.061263204 14800345 -0.10733472 -0.042672306 0.99330676 0.0019643833
1.3224472 -0.47606933 0.063512981 14471637 -0.082895547 -0.026579887 0.99620378 0.00090993254
1.3424342 -0.47966665 0.06539768 14603223 -0.10094755 -0.013208764 0.99480408 0.0026637595
1.3549658 -0.47525483 0.066712528 14405846 -0.10862947 -0.0109272 0.99402231 0.0022180863
1.3808842 -0.47954154 0.068534613 14669018 -0.10992564 -0.032171279 0.99341905 0.0018191984
1.2374235 -0.46824837 0.064406574 14537430 -0.084981307 0.0049940776 0.99637008 0.0017507683
1.2526813 -0.46313593 0.062240362 14603223 -0.078203633 -0.0059898356 0.99691945 0.0013523226
1.2942547 -0.46187425 0.061544985 14405845 -0.14293718 -0.022025324 0.98948669 0.0017786544
1.3226715 -0.46533895 0.064814836 14537432 -0.089032263 -0.030009657 0.99557656 0.0011625251
1.3376176 -0.46698439 0.06668663 14734811 -0.099647671 -0.039023083 0.99425733 0.0025531081
1.3609953 -0.46597379 0.066384405 14537432 -0.1094195 -0.012001419 0.99392325 0.0022725251
1.3818291 -0.46830502 0.068537027 14603225 -0.10809566 -0.01226515 0.99406487 0.0020892052
1.2484844 -0.45157716 0.062930822 14668505 -0.090629905 0.0080834189 0.99585187 0.0016656766
1.2898495 -0.45407331 0.067321658 14603223 -0.12547588 -0.024567209 0.99179244 0.0013164512
1.3068888 -0.4581773 0.062597036 14734811 -0.11359093 -0.030274577 0.99306619 0.0013078207
1.3286824 -0.45627922 0.064415932 14536919 -0.08229512 -0.026954897 0.99624342 0.0010663565
1.3385352 -0.45607433 0.066688985 14669018 -0.10522467 -0.046924695 0.99334079 0.0022457479
1.3612254 -0.45497113 0.067719311 14471639 -0.099392116 -0.014914267 0.99493659 0.0020565523
1.3760611 -0.45515952 0.069988102 14669018 -0.091024175 -0.013893643 0.9957518 0.0019526712
1.2905385 -0.4437955 0.067297161 14734298 -0.11492276 -0.039419577 0.99259198 0.0010741642
1.3055154 -0.44803882 0.061722025 14603225 -0.13451506 -0.012888498 0.99082774 0.0015543876
1.3289077 -0.44550341 0.0657233 14339540 -0.079419903 -0.020306503 0.99663436 0.0012026171
1.3337075 -0.44352877 0.067977935 14669016 -0.12617648 -0.027909862 0.99161512 0.002557541
1.3730601 -0.44713938 0.06576103 14471126 -0.094066858 -0.0069390461 0.99554175 0.0016020376
1.1971524 -0.43538496 0.060793608 14668759 -0.14081785 -0.0084110573 0.98999977 0.0022986776
1.2394125 -0.43857792 0.064335868 14734552 -0.098311618 0.012644496 0.99507535 0.0022927818
1.2449481 -0.43016633 0.063597798 14536919 -0.090610154 0.0079881176 0.99585444 0.0010353399
1.2912275 -0.43351763 0.067272663 14668505 -0.11341484 -0.021415619 0.99331695 0.0012551787
1.3060755 -0.43739673 0.062366307 14537431 -0.13275409 -0.00062819762 0.99114883 0.001217048
1.3347714 -0.43448591 0.066660598 14471638 -0.10109868 -0.005545727 0.99486089 0.0014174734
1.3732921 -0.43604606 0.067106962 14405587 -0.094834007 0.0043784459 0.99548346 0.0019241696
1.2504886 -0.42167869 0.06285958 14537173 -0.10143526 -0.0026553941 0.9948386 0.0011802797
1.2919165 -0.42323977 0.067248166 14602966 -0.11740793 -0.02414526 0.99279022 0.0011410145
1.3066497 -0.42674845 0.062843323 14537431 -0.13324597 0.00031800059 0.99108297 0.0012698302
1.3297818 -0.42025524 0.06926918 14537430 -0.12316363 0.005175251 0.99237293 0.001585967
1.3351479 -0.42548645 0.066653818 14274260 -0.083135493 -0.0037858041 0.99653107 0.00087445445
1.3735241 -0.42495263 0.068452895 14405333 -0.09967614 -0.0062196557 0.99500054 0.0021796008
1.3856091 -0.42335889 0.068546712 14537432 -0.090059534 -0.030594833 0.99546635 0.0017919964
1.2926055 -0.4129619 0.067223668 14537173 -0.11906119 -0.0098188808 0.99283838 0.0013113576
1.3087215 -0.41805124 0.063264042 14471639 -0.12151045 0.005920127 0.99257255 0.00099547382
1.3104824 -0.41544816 0.062606245 14669016 -0.11750488 0.0085457237 0.99303555 0.0017849363
1.3416848 -0.41429424 0.066493198 14339796 -0.095480755 0.0022078233 0.9954288 0.0015165636
1.3796921 -0.41286731 0.069083244 14471383 -0.10024735 -0.037439961 0.99425787 0.0024681718
1.2365239 -0.40750489 0.064979821 14537173 -0.12108912 -0.0027825614 0.99263775 0.0013573713
1.2469448 -0.40038183 0.063526839 14471380 -0.11615819 -0.0091980798 0.9931882 0.0011587568
1.288409 -0.40135744 0.067876041 14537173 -0.11647895 -0.0095690973 0.99314708 0.0012287986
1.3159246 -0.4075796 0.062055051 14471381 -0.12182683 1.1078277e-05 0.99255139 0.0016674483
1.3480332 -0.40485454 0.065673679 14339539 -0.10246347 -0.0095936153 0.99469054 0.0018963215
1.379794 -0.40416974 0.069520175 14340053 -0.12812775 -0.059047349 0.9899984 0.0025900088
1.2476103 -0.39045361 0.063503176 14471380 -0.11752798 -0.011160874 0.99300689 0.0011653851
1.3074858 -0.39287308 0.063720345 14405587 -0.11386109 -0.023144485 0.99322706 0.0021037888
1.3207209 -0.39964837 0.062412977 14208208 -0.10638016 -0.01606603 0.99419576 0.0014375478
1.3457258 -0.39321691 0.066980064 14339794 -0.10834195 -0.026518518 0.99375993 0.0019331423
1.392609 -0.39597464 0.067363709 14142672 -0.11500004 -0.046252616 0.99228811 0.0029064233
1.2531611 -0.38181397 0.062764585 14537173 -0.11149087 -0.020723293 0.99354941 0.0010547889
1.2783415 -0.38828275 0.069340914 14405587 -0.11654953 -0.01697471 0.99303985 0.001493179
1.2897879 -0.38090438 0.06197983 14142161 -0.114297 -0.056373585 0.99184591 0.0015569177
1.308381 -0.38222873 0.06372264 14471380 -0.11843328 -0.017263312 0.99281198 0.002623444
1.3209454 -0.38891804 0.063714832 14274001 -0.10734248 -0.039559528 0.99343479 0.0016678773
1.3534322 -0.38626093 0.066918731 14274001 -0.096092552 -0.049237564 0.99415386 0.002980636
1.2489414 -0.37059733 0.06345585 14471639 -0.11784748 -0.016308462 0.99289781 0.00093173946
1.2790225 -0.37812653 0.069316715 14405846 -0.11669379 -0.019130126 0.9929837 0.0014309329
1.2900077 -0.37039322 0.063255072 14142161 -0.12747645 -0.075843975 0.98893762 0.0012724636
1.3035164 -0.37022293 0.065056324 14471378 -0.088958398 -0.050457988 0.99475652 0.0021351229
1.3269489 -0.37953514 0.063311309 14274001 -0.095811844 -0.052651625 0.99400598 0.001293499
1.3391896 -0.3783417 0.067992002 14274258 -0.12150837 -0.024431963 0.99228972 0.0026628524
1.3536613 -0.37530363 0.068248123 14273747 -0.12092707 -0.04492861 0.99164414 0.0018632802
1.1967613 -0.36710048 0.061386883 14537173 -0.11310838 -0.02888979 0.99316263 0.0015490293
1.2650692 -0.36143243 0.063332319 14537173 -0.10190743 -0.053055122 0.9933781 0.0018943954
1.285575 -0.36942536 0.06847997 14471639 -0.10275263 -0.034668557 0.9941026 0.00070669351
1.2935741 -0.3607884 0.065282866 14405589 -0.11162985 -0.054985777 0.99222749 0.0010213099
1.3213941 -0.36745715 0.066318601 14273747 -0.084430337 -0.06311655 0.9944284 0.0013573602
1.3401034 -0.36747724 0.067994326 14340051 -0.12066247 -0.03224979 0.99216962 0.0018933697
1.3596854 -0.36560875 0.067926288 14273747 -0.11580494 -0.041184872 0.99241781 0.0021713935
1.2061932 -0.35981825 0.060008734 14602966 -0.12036111 -0.038076337 0.99199969 0.0013641272
1.2398261 -0.35824415 0.06486243 14405587 -0.10503035 -0.026952781 0.99410373 0.00076428906
1.2659364 -0.35112217 0.063334554 14602966 -0.086088955 -0.046611067 0.99519652 0.0014787824
1.2962143 -0.35062224 0.064068049 14273747 -0.13074762 -0.079277098 0.98824096 0.00161451
1.3044078 -0.35962415 0.065058619 14471380 -0.092869878 -0.034140036 0.99509281 0.0021891666
1.3216184 -0.35672677 0.067620456 14273747 -0.067722626 -0.055338096 0.99616838 0.0011339813
1.3352411 -0.35534158 0.069283187 14537173 -0.12525299 -0.0056275325 0.99210894 0.0016089366
1.3657115 -0.35582304 0.067615479 14142161 -0.1237016 -0.028144076 0.99192029 0.0020779676
1.2453796 -0.34956649 0.06412375 14471126 -0.11782374 -0.036580712 0.99236053 0.00070554472
1.271739 -0.34331882 0.061369941 14339796 -0.1471862 -0.046735153 0.98800409 0.0014202342
1.2810649 -0.34765786 0.069244102 14471639 -0.1143778 -0.021674855 0.99320084 0.00071603031
1.296435 -0.34006572 0.065348834 14208208 -0.13794111 -0.046578091 0.9893446 0.0023670988
1.3052992 -0.34902537 0.065060914 14340051 -0.088232599 -0.025036562 0.99578518 0.0020094728
1.316771 -0.34067211 0.062622368 14340051 -0.099987909 -0.027545903 0.99460733 0.0015191324
1.3276248 -0.34720778 0.067233443 14142415 -0.061003122 -0.053602893 0.99669725 0.0011177887
1.3419307 -0.34574822 0.067998976 14273747 -0.12494746 0.0073282681 0.9921363 0.0021871894
1.1986784 -0.33850184 0.061318725 14471380 -0.12035112 -0.033084176 0.99217999 0.0016674541
1.2042099 -0.33010533 0.060542718 14405587 -0.11249188 -0.023217117 0.99338138 0.0016870105
1.241147 -0.33853987 0.064815491 14339540 -0.11696192 -0.033501484 0.99257123 0.00075175293
1.274684 -0.33345971 0.061427921 14405587 -0.14762916 -0.043068137 0.98810464 0.0020175278
1.2817458 -0.33750162 0.069219902 14471637 -0.11135236 -0.025259621 0.99345988 0.0008398135
1.3278501 -0.33643198 0.068540812 14076368 -0.059387598 -0.053212695 0.99681574 0.0016407502
1.3428445 -0.33488372 0.06800136 14208208 -0.12579274 0.030856334 0.99157655 0.0021768655
1.2350147 -0.32380942 0.060762048 14274001 -0.14547519 -0.0075945389 0.9893328 0.0015907878
1.2418075 -0.32868776 0.064792007 14339540 -0.11729656 -0.019981783 0.9928959 0.00069314073
1.2759908 -0.32413611 0.064554639 14405331 -0.14268705 -0.027650043 0.98938167 0.0013970487
1.2966558 -0.32950926 0.066629589 14142415 -0.12683132 -0.028362796 0.99151874 0.0035358954
1.3070819 -0.32782781 0.065065473 14207954 -0.076116048 -0.016430531 0.99696362 0.0011300961
1.3396434 -0.32789755 0.066492438 14076368 -0.069520801 -0.021660686 0.99734539 0.0018404023
1.3437582 -0.32401922 0.068003684 14208208 -0.1154974 0.018425971 0.99313694 0.0025582784
1.2473685 -0.31989607 0.064053044 14208467 -0.12434303 -0.05754998 0.99056894 0.0035089976
1.2777629 -0.31534433 0.066355303 14274000 -0.14640297 -0.031240242 0.98873156 0.0029837522
1.2968764 -0.31895274 0.067910373 14339024 -0.12678075 -0.010635793 0.99187374 0.0040368536
1.3021946 -0.31609535 0.066399097 14143437 -0.069216363 -0.035862572 0.99695688 0.00088438892
1.3398706 -0.31703097 0.067810833 14076368 -0.073610522 -0.019321362 0.99709994 0.0021888677
1.344672 -0.3131547 0.068006009 14142926 -0.10855053 0.0041328352 0.99408233 0.0027173338
1.2061347 -0.3013927 0.060474306 14798548 -0.11933924 -0.036714602 0.99217451 0.0050841216
1.2343029 -0.30714312 0.06603308 14012369 -0.1490052 -0.071161345 0.98627251 0.0054287063
1.2694048 -0.30988109 0.063343436 14274260 -0.095174804 -0.025253575 0.99514019 0.0013282869
1.2835438 -0.30609563 0.065757632 14142675 -0.1241155 -0.015758069 0.99214262 0.0035991531
1.2970972 -0.30839628 0.069191128 14142161 -0.14340213 0.0011763424 0.98966384 0.0037931651
1.3030821 -0.30554211 0.066401392 14142415 -0.058782607 -0.046216004 0.99720043 0.00077168923
1.3136717 -0.30074221 0.0656268 13945295 -0.075608641 -0.00055428594 0.99713743 0.0023921179
1.3400978 -0.3061645 0.069129229 13944782 -0.10101032 -0.025176123 0.9945668 0.0026579646
1.3513808 -0.30333352 0.066721916 14076879 -0.10820432 -0.033006698 0.99358058 0.0022185743
1.2018735 -0.29083753 0.061205149 11841212 -0.13182294 -0.024529425 0.99096978 0.0050085974
1.2388831 -0.2981469 0.065437227 14602972 -0.15020502 -0.071344122 0.98607731 0.0062819095
1.274915 -0.29775053 0.066573262 14405591 -0.092464909 -0.044226371 0.99473327 0.0025728457
1.2835184 -0.29468507 0.063638657 14012377 -0.15653887 -0.015533373 0.98754966 0.0044624195
1.3039696 -0.2949889 0.066403657 14470612 -0.059985746 -0.056674492 0.99658906 0.00067511108
1.3196679 -0.29103631 0.065218627 12169922 -0.071030051 -0.01082959 0.99741542 0.0022931991
1.3461119 -0.29628253 0.068786234 13552079 -0.11716667 -0.0077452883 0.99308211 0.0023887518
1.3522984 -0.29242346 0.066724271 13618638 -0.12216672 -0.043231349 0.99156767 0.0023032385
1.2255121 -0.28306133 0.060258299 8085886 -0.10919988 -0.006903477 0.99399585 0.0034209965
1.2395411 -0.28833276 0.065413848 9799826 -0.15086544 -0.076526701 0.98558784 0.0060923724
1.2648017 -0.28420556 0.06236963 14800084 -0.11372346 -0.050302494 0.99223816 0.001790103
1.2837374 -0.2842117 0.064909309 6436381 -0.14307623 -0.012430334 0.98963362 0.003718087
1.3048571 -0.28443569 0.066405922 9404541 -0.061039954 -0.044101048 0.99716061 0.00060461002
1.1887774 -0.27865505 0.063292921 14732742 -0.092261977 -0.036228411 0.99507552 0.0023768253
1.2362704 -0.27779195 0.065963134 14931151 -0.15841711 -0.052773621 0.9859609 0.0076685455
1.2662246 -0.27795401 0.064726293 13745319 -0.10692851 -0.03365463 0.99369699 0.0010630639
1.2887563 -0.27451181 0.064728141 14078421 -0.11838579 -0.018460199 0.99279606 0.003706641
1.3009163 -0.27308956 0.067517638 14603726 -0.076429598 -0.033578176 0.99650943 0.00050590339
1.3141185 -0.27937216 0.068219513 15126222 -0.079436868 -0.0093465894 0.99679613 0.0021505284
1.3258914 -0.27046371 0.06612879 14011599 -0.065118998 -0.040918127 0.99703825 0.0017875084
1.3416102 -0.27960891 0.069299489 11311014 -0.09865056 -0.058613732 0.99339443 0.0018628233
1.2087011 -0.26310924 0.060383067 14340053 -0.16434799 -0.036016613 0.98574471 0.0070373141
1.2369263 -0.2680082 0.065939814 14339540 -0.14614014 -0.020925933 0.98904258 0.0073377979
1.2400947 -0.26340547 0.060775071 14536405 -0.13662215 -0.046265412 0.98954231 0.0027863672
1.2657732 -0.26876852 0.062999383 14208214 -0.10357316 -0.035860125 0.99397522 0.0017866155
1.2877438 -0.26520443 0.067526937 14338771 -0.084540434 -0.033458386 0.99585813 0.002983267
1.3066323 -0.26332924 0.066410482 14404819 -0.066780522 -0.0089604333 0.99772745 0.0018546046
1.3583755 -0.26524371 0.0694682 14142163 -0.10733185 0.0086924667 0.99418527 0.0021994561
1.2044297 -0.25270608 0.061114281 14142924 -0.11907614 -0.061391342 0.99098539 0.0023122835
1.2277505 -0.25655973 0.06734854 14142672 -0.17840961 -0.021101858 0.98373002 0.00631889
1.2363892 -0.25352451 0.061270446 14076621 -0.10891563 -0.03271034 0.99351263 0.0018727105
1.266313 -0.25846371 0.063628033 14208207 -0.11562728 -0.03136548 0.99279732 0.00134394
1.2822711 -0.25545737 0.069704413 14273483 -0.080077685 -0.023194911 0.99651873 0.004512825
1.2949575 -0.254327 0.065547466 14076881 -0.12522121 -0.029168706 0.99169993 0.0026483322
1.3026849 -0.25205904 0.067522168 13814988 -0.065897375 -0.0014359988 0.99782538 0.001874054
1.3261167 -0.25968796 0.067436159 14141643 -0.062676162 -0.051088221 0.99672556 0.0016746533
1.3643962 -0.25504413 0.06916374 13813196 -0.11008547 -0.0059793522 0.99390417 0.0020975112
1.2008274 -0.24483955 0.061117247 14076879 -0.097587653 -0.041140981 0.99437624 0.0024947566
1.2284013 -0.24685206 0.067325413 14207956 -0.1357078 -0.014839837 0.99063778 0.0074392105
1.2417161 -0.24413793 0.060537696 13945039 -0.1016812 -0.024150876 0.99452388 0.0018324328
1.2688144 -0.24715982 0.064732909 14077133 -0.11591669 -0.023760367 0.9929747 0.0012156151
1.2731428 -0.24512269 0.061899289 14141645 -0.099562958 -0.017487811 0.99487752 0.0025682682
1.2964709 -0.24224971 0.067841962 14010831 -0.099267133 0.0039591482 0.99505299 0.0030743149
1.326342 -0.24891213 0.068743557 13878989 -0.062395696 -0.03339364 0.99749273 0.00214142
1.1840683 -0.23031287 0.064387292 14076622 -0.11548636 -0.058290813 0.99159724 0.0018046006
1.2358921 -0.23521321 0.064275935 14010828 -0.12241857 -0.027574401 0.99209541 0.0047582947
1.2418574 -0.23481908 0.061531782 13879243 -0.11769712 -0.017607257 0.99289346 0.0015228342
1.2696776 -0.23689511 0.064735144 14076620 -0.084706359 0.0054059378 0.99639136 0.0025650004
1.2953991 -0.23321404 0.068108976 13944782 -0.12102735 0.011486456 0.99258274 0.0046914332
1.1974897 -0.22281469 0.062403843 14010829 -0.11772814 -0.069057323 0.99064183 0.0013668037
1.2247794 -0.22671829 0.067995444 14010829 -0.12701328 -0.015541657 0.99177927 0.0070123617
1.2451658 -0.22419116 0.061022937 13879498 -0.11701464 -0.017468957 0.99297655 0.0023433992
1.2732029 -0.2282289 0.063897535 13879500 -0.097371995 0.0061334088 0.99522918 0.003104392
1.2818336 -0.22009517 0.062565029 13813196 -0.10401154 0.027759455 0.99418867 0.0037364739
1.2938029 -0.22961815 0.0699673 13880013 -0.078352228 0.015499663 0.99680525 0.0017119
1.3013844 -0.2233588 0.067675054 13878475 -0.12168255 0.01989539 0.99236965 0.0038433529
1.3218089 -0.22256379 0.063757062 13814218 -0.084727325 0.018946307 0.99622405 0.0022733319
1.3461597 -0.22551416 0.069311172 13747914 -0.087492801 -0.0075893914 0.99613631 0.0035490375
1.185324 -0.21158163 0.064342663 13813450 -0.12961845 -0.051451169 0.99022818 0.0019738453
1.2254276 -0.2170486 0.067972392 13879500 -0.1091234 -0.035161544 0.99340612 0.0043783933
1.2394981 -0.212467 0.061970115 13879243 -0.10386102 0.018123996 0.99442673 0.0015865058
1.2470639 -0.21502234 0.062502503 13944266 -0.097238392 0.017725356 0.9951033 0.003201664
1.2925971 -0.21081418 0.06062299 13681610 -0.11121967 0.022305876 0.99354547 0.0036452874
1.3121762 -0.21395943 0.065827817 13878475 -0.1223884 0.0092235887 0.99243945 0.0041018538
1.1501857 -0.20679641 0.060528412 13747657 -0.11852794 -0.0019305976 0.99294883 0.002645327
1.2310044 -0.20802121 0.067232877 13813707 -0.11355436 -0.031996816 0.99301648 0.0039479788
1.2530153 -0.20544341 0.061947376 13878473 -0.11069289 0.024910457 0.99354243 0.0031788177
1.3181661 -0.2038849 0.065420508 13746889 -0.10649724 0.027116487 0.99394321 0.0032314525
1.1679201 -0.18452597 0.060344249 13682632 -0.088091403 -0.019155398 0.99592823 0.0025170948
0.68716979 -0.12071036 0.06090492 12367055 -0.75639445 -0.65389878 -0.016847508 0.0051743221
0.67189121 -0.11018796 0.064580888 12828366 -0.78018862 -0.62286752 -0.057807557 0.0034740344
0.68165994 -0.11415137 0.064341411 12827343 -0.75964379 -0.65009302 0.017895425 0.025532831
0.6686886 -0.1030608 0.065477356 8879505 -0.79429597 -0.60746205 -0.0091468869 0.019629553
0.67627245 -0.10776108 0.066128775 9537175 -0.78111821 -0.62437916 0.0022354436 0.029962266
1.2181399 -0.10931531 0.063385159 13353158 -0.12240428 -0.03072303 0.99200469 0.0029458867
1.2520075 -0.10150025 0.064632386 13287104 -0.12567151 -0.0051424801 0.99205858 0.003631257
0.65956134 -0.091165982 0.061786324 7693418 -0.84931105 -0.51429451 -0.11904553 0.0022574305
0.66416168 -0.095210418 0.065199964 7759726 -0.84058642 -0.53756499 -0.066621497 0.013596992
1.2231158 -0.099438198 0.063079327 13287624 -0.12549302 -0.0054167733 0.99207979 0.0036718138
1.2522223 -0.091231123 0.065878302 13287104 -0.12566045 -0.005179204 0.99205983 0.0036323033
0.65530026 -0.083989605 0.063977875 6772566 -0.87805402 -0.46654442 -0.10657137 0.0027371249
0.66044337 -0.084272377 0.06230852 7101274 -0.87563664 -0.4739421 -0.092948467 0.0031691976
1.2233262 -0.089373246 0.064300478 13221831 -0.12705186 0.026073247 0.99155337 0.0045047705
1.252437 -0.080961987 0.067124218 13155516 -0.12486894 0.027886959 0.99178129 0.0046049869
1.2862537 -0.082749121 0.06767419 13154748 -0.092285931 -0.021395266 0.99550271 0.0051392536
0.64876699 -0.074836425 0.066775829 6838102 -0.90264893 -0.42077965 -0.090384863 0.0029710322
0.65437394 -0.076321691 0.064197853 7232600 -0.9140349 -0.39814156 -0.077611245 0.0035314527
1.2235367 -0.079308279 0.065521598 12893120 -0.12705319 0.026074724 0.99155313 0.0045038862
1.2864734 -0.072238013 0.068949461 13088705 -0.092998147 -0.018528171 0.99549389 0.0051265573
0.64690626 -0.064304695 0.066155046 6049098 -0.94805181 -0.30276975 -0.097612604 0.002912943
0.65342098 -0.067513801 0.064405799 6443598 -0.9426077 -0.33115497 -0.042743616 0.0034603246
1.292444 -0.06173652 0.068506241 13154752 -0.087278187 -0.013197027 0.99609661 0.0051546921
0.64566576 -0.05343771 0.065454252 5785922 -0.97657949 -0.2038549 -0.068816729 0.0047828914
1.30321 -0.051114507 0.066646516 3946315 -0.094757922 -0.01153683 0.99543351 0.0060895095
0.63995034 -0.044469699 0.067994162 4929846 -0.983217 -0.16270825 -0.082525358 0.0027957817
0.64564079 -0.04393838 0.063528337 6115144 -0.99091661 -0.11203481 -0.074381709 0.0053049475
0.63876998 -0.035373669 0.069034398 4470065 -0.99256372 -0.087337136 -0.084790632 0.0043661525
0.64411801 -0.033538654 0.064659327 6049351 -0.9957335 -0.004895824 -0.092146024 0.0041467929
0.63811785 -0.022167627 0.068400092 4469293 -0.99461269 0.046841808 -0.092474476 0.0060889744
0.64748025 -0.02292693 0.064720407 6048837 -0.99659312 0.062137946 -0.054230694 0.0019006047
0.6398325 -0.014687885 0.068289027 4403498 -0.97885716 0.18105476 -0.095172733 0.0040152525
0.6440928 -0.015978253 0.064738147 5917250 -0.98934138 0.12184858 -0.079727001 0.0020905698
0.64572543 -0.0064392458 0.06607987 5324854 -0.97734863 0.20031121 -0.068301179 0.0027135867
0.65042567 -0.0006848881 0.064030081 5456440 -0.96647078 0.2542879 -0.03566302 0.0032941215
0.64554429 0.0035566541 0.066946402 4864303 -0.95011431 0.29673347 -0.096083224 0.003397787
0.65165603 0.0054292488 0.065664425 5390647 -0.95446402 0.29757586 -0.02114265 0.0024428568
0.64844888 0.01571041 0.067662269 3812131 -0.9153437 0.39560366 -0.075124651 0.0021644663
0.65369815 0.014492321 0.064406045 4666668 -0.92572957 0.37412223 -0.055293087 0.0037129305
0.65504485 0.025649151 0.065671921 3285269 -0.86819547 0.48647022 -0.097894847 0.0029429551
0.66144598 0.027321866 0.064621404 3350548 -0.85545057 0.51788414 0.000619795 0.0037039288
0.65663677 0.031578157 0.06694594 2890514 -0.85260212 0.51794887 -0.069272935 0.0023325263
0.66614485 0.036630642 0.063151151 3745819 -0.8228929 0.56608534 -0.048935384 0.0036742678
0.66653585 0.041479319 0.063358575 3219732 -0.78548133 0.61186403 -0.092959784 0.0042475853
0.67365754 0.045366395 0.065180697 3350805 -0.76639503 0.64235228 -0.0047154045 0.0031144693
1.2103696 0.043148097 0.064076126 6510688 -0.11413721 -0.00086309767 0.99346465 0.0047207759
0.67523724 0.054312229 0.065187275 3285014 -0.73777109 0.67388803 -0.039608169 0.0036222164
0.68423742 0.056917775 0.063269421 3811354 -0.69550622 0.71850348 0.0048935418 0.0034334122
1.2200879 0.053990074 0.062236905 7496051 -0.11413719 -0.00086306769 0.99346459 0.0047208173
0.68534446 0.061884589 0.065880544 3877148 -0.6068486 0.78991127 -0.088176146 0.013844331
1.2202984 0.064055033 0.063458085 12167603 -0.11413753 -0.00086327642 0.99346465 0.0047204224
1.2338784 0.063839056 0.069770843 12365236 -0.11413834 -0.00084917998 0.99346453 0.0047199228
0.70687526 0.074365884 0.068629384 4467489 -0.59917545 0.80059326 -0.0062667802 0.00081535394
1.2205088 0.074119993 0.064679205 12300468 -0.11812899 0.0049517453 0.99298596 0.004715485
1.2207193 0.08418496 0.065900326 12824497 -0.11410755 -0.022652723 0.9932102 0.0041279243
1.2035989 0.093730338 0.06217137 12366512 -0.12308628 -0.036180984 0.99173623 0.0028093907
1.216172 0.093672372 0.068628699 12234927 -0.12251016 -0.022963114 0.99220157 0.0032685432
1.1573294 0.15828401 0.065610558 12299182 -0.18360722 0.20482561 0.9614234 0.0022007662
1.1966301 0.15685177 0.060417861 12168107 -0.11605024 -0.0077740797 0.99321294 0.00085623673
1.2925776 0.15163589 0.067112178 12693924 -0.1038231 -0.038535688 0.99384898 0.0022123302
1.1717185 0.1705844 0.062042087 12103079 -0.28104401 0.48475549 0.82826716 0.022743765
1.1927241 0.17277721 0.065443635 12233389 -0.21964183 0.33250347 0.91716897 0.031371359
1.2147685 0.1751119 0.068817347 12298412 -0.2113522 0.16711847 0.96301699 0.047688138
1.2219958 0.17022458 0.064143151 11970727 -0.10616793 -0.0040414189 0.99434 0.0013791539
1.2476215 0.17428479 0.067973673 11904421 -0.11590026 0.00031687506 0.9932608 0.0019163953
1.171922 0.18031663 0.063222855 12364205 -0.26202714 0.40323487 0.87678021 0.028776061
1.2024142 0.18450724 0.063565999 12232621 -0.18002872 0.23969026 0.95401168 0.039928835
1.2197316 0.1860615 0.06853199 12167596 -0.21140341 0.16705002 0.96301764 0.04768002
1.237659 0.18263355 0.060481519 11970474 -0.10863084 0.0029310193 0.99407792 0.0016059612
1.2534068 0.185041 0.066791952 11838631 -0.11581576 -0.0033397311 0.99326515 0.0020668274
1.1806409 0.19179392 0.06157887 11839911 -0.25725842 0.32077849 0.91154778 0.034900431
1.2073647 0.19542365 0.063240051 11970217 -0.19811592 0.12021116 0.97277921 0.050062872
1.219942 0.19612646 0.06975311 11970217 -0.25201741 0.069514133 0.96522284 0.052240804
1.1147099 0.20696513 0.060930476 11771806 -0.1360887 -0.0025086615 0.99069351 0.0010865059
1.2075735 0.205413 0.064452022 11838628 -0.23391297 0.074363276 0.96940958 0.049930546
1.2535352 0.20101574 0.069980234 12101033 -0.11655559 0.015731482 0.99305958 0.0035647652
1.2909005 0.20143516 0.068498909 12035491 -0.11179493 -0.0083670579 0.99369609 0.0021202539
1.1152877 0.21558575 0.060909927 11443870 -0.13941614 -0.00051858259 0.99023378 0.0012357464
1.2125264 0.21644282 0.064139813 13090499 -0.27593938 0.023215519 0.96089464 0.048560403
1.2330968 0.21396032 0.067559481 11969959 -0.18649715 -0.0013343468 0.98245466 0.0063627828
1.3026903 0.21376057 0.065978914 11706015 -0.10601799 -0.0043939399 0.99435455 0.0020349992
1.1201893 0.22947787 0.060211256 9798533 -0.13805631 -0.0001958122 0.99042439 0.0013251345
1.1471925 0.22265832 0.06458652 11443354 -0.11033279 -0.0028580322 0.99389064 0.0025910046
1.1801413 0.22995837 0.068582445 10256508 -0.1193685 -0.010733109 0.99279201 0.0026871264
1.2174811 0.22754829 0.063836813 3348796 -0.36335099 0.011165857 0.93158543 0.040101789
1.2357943 0.22975722 0.068669081 5847891 -0.17506632 0.020044543 0.98435259 0.0070250169
1.2644542 0.22389846 0.069286436 11644073 -0.10246947 -0.019987293 0.99453533 0.0034257886
1.1443417 0.23939456 0.065181822 12167344 -0.098114438 0.0044514691 0.99516523 0.002603451
1.1720033 0.23718983 0.060740754 9007220 -0.11986353 -0.012681911 0.9927094 0.0028472159
1.2176915 0.23761322 0.065057933 3485750 -0.24794057 0.02734451 0.96838927 0.0056784148
1.2360072 0.23994313 0.069904894 11905459 -0.18082511 -0.0048508048 0.98350334 0.006679622
1.1449333 0.24822046 0.065160796 11903907 -0.10457476 -0.0052975873 0.9945029 0.0030254691
1.1898379 0.24118607 0.067194879 13154752 -0.10348302 -0.0031738719 0.99462616 0.0025228111
1.2226484 0.24883212 0.064768732 3875643 -0.18030593 -0.0070993975 0.98358494 0.0059333844
1.1181772 0.25868893 0.060807228 11640223 -0.11897709 -0.03591828 0.9922471 0.0020999485
1.1216393 0.25110549 0.060159713 11574176 -0.1288279 -0.030485002 0.9911983 0.0020077566
1.145525 0.25704634 0.065139771 11706528 -0.10926448 0.00017780183 0.99401271 0.0032234471
1.1907599 0.25493801 0.067162126 11772064 -0.10451839 -0.00061284588 0.99452281 0.0026770253
1.122799 0.26840749 0.060118482 11639709 -0.10960852 -0.018449415 0.99380362 0.0021715113
1.1518961 0.26668784 0.06230922 11837344 -0.10295896 -0.0063410103 0.99466538 0.0032028423
1.1660377 0.2678166 0.066155314 11838114 -0.10386161 0.0075111915 0.9945634 0.0028391709
1.1825813 0.26635662 0.068495691 11640735 -0.11221096 0.0050710379 0.99367148 0.0029637006
1.2022201 0.26960638 0.06144923 11706013 -0.10705829 0.0058924556 0.99423528 0.00078347197
1.2333038 0.26155674 0.062681645 8151929 -0.15976244 -0.017857574 0.98699403 0.0076029995
1.119333 0.27593017 0.060766131 11574427 -0.1071066 0.00057303649 0.99424738 0.0024998661
1.154801 0.27689397 0.063822091 11509149 -0.12343548 0.0093190996 0.99230886 0.0014150563
1.1769464 0.27713281 0.066798836 11574943 -0.10828553 0.00058656756 0.9941197 0.0031018597
1.2232822 0.27914047 0.068445891 11706528 -0.10994063 -0.033238407 0.99338222 0.0051677586
1.2347145 0.27474743 0.063431188 11771811 -0.1255182 -0.010846586 0.99203199 0.0042959615
1.1057421 0.28049496 0.063084796 11508634 -0.11383361 -0.020955432 0.9932788 0.0023703449
1.1528289 0.28518438 0.063774377 11574430 -0.097690046 0.010306112 0.9951635 0.0022182348
1.1838013 0.28455576 0.068452328 11443101 -0.11602831 -0.00053192541 0.99324578 0.0015765973
1.202425 0.28451031 0.06381014 11771550 -0.094568394 -0.033654708 0.99494934 0.0027458544
1.2234935 0.28924322 0.069671601 11706013 -0.10467792 -0.048943534 0.99330115 0.005147153
1.1134008 0.29109025 0.061894774 11311770 -0.093116708 0.00066123623 0.995655 0.0018161456
1.1542346 0.29529232 0.063638479 11706016 -0.095300354 -0.015826644 0.99532276 0.0039502969
1.160043 0.29582608 0.063141763 11311768 -0.11733799 -0.0053134803 0.99307787 0.0025957711
1.1844089 0.29299951 0.065506257 11509150 -0.10476006 -0.01827655 0.99432963 0.0024495909
1.2031252 0.29657531 0.064415351 11574686 -0.10594314 -0.026573028 0.99401706 0.0019565762
1.234641 0.29160869 0.063558578 11574428 -0.11428024 0.0094987685 0.99340314 0.0015511693
1.2575517 0.29235938 0.067999125 11640222 -0.11955693 0.016398268 0.99269193 0.0012863835
1.1180274 0.30087733 0.061205864 11311768 -0.090437032 0.0085763196 0.99586529 0.0018223439
1.1525357 0.30236489 0.06439656 11311257 -0.12504715 -0.018441252 0.99197942 0.0022198271
1.1638701 0.30777603 0.061632991 11771808 -0.097218014 -0.053112388 0.99384493 0.0029865399
1.1846123 0.3021819 0.06377548 11706016 -0.082013853 -0.025471034 0.99630564 0.0034948091
1.1900873 0.30420315 0.067649513 11377048 -0.10966113 -0.017441407 0.99381602 0.0022482732
1.2053999 0.30741575 0.061457366 11508634 -0.11861198 -0.00045586936 0.99294066 0.00089840416
1.2113328 0.30790949 0.065545022 11574687 -0.12785102 -0.033307005 0.991234 0.0023221306
1.2333665 0.30542728 0.064172298 11508636 -0.089071378 -0.0016370164 0.99602389 0.00061613292
1.2633752 0.30357105 0.066817492 11508634 -0.14396703 0.0071711848 0.98955649 0.0015667253
1.1151239 0.31679255 0.061833531 11245977 -0.089869171 -0.0072430731 0.99592727 0.0022895492
1.1216445 0.3104127 0.060683966 11311770 -0.092942536 -0.00021966547 0.99567151 0.002311399
1.1531295 0.31122118 0.06437546 11245977 -0.12638421 -0.03719921 0.9912836 0.0022366345
1.1640728 0.31747049 0.062809169 11640222 -0.099052854 -0.039684828 0.99429053 0.0027019724
1.184818 0.31201994 0.064969093 11640223 -0.089063555 -0.030092411 0.99557126 0.0025061753
1.1947546 0.31452984 0.067020103 11377050 -0.10358776 -0.01705545 0.99447411 0.0020840557
1.2061949 0.3168681 0.061459392 11442841 -0.11407858 -0.0022498174 0.99346924 0.0012756615
1.2115424 0.31793666 0.066761583 11640223 -0.13060987 -0.029281855 0.99100137 0.0022789235
1.2341787 0.31508467 0.064174354 11377563 -0.088741571 -0.0015762234 0.99605346 0.00064201647
1.2642059 0.31344861 0.066819608 11245975 -0.13744228 0.0099228304 0.9904601 0.001568652
1.1396443 0.32138848 0.062178344 11508634 -0.11966375 -0.017892972 0.99265325 0.0028719036
1.1566399 0.32286713 0.064958408 11442842 -0.12107962 -0.035122525 0.99202126 0.0024012516
1.1856326 0.32140598 0.067264147 11442843 -0.093036748 -0.032982484 0.99511623 0.0020428253
1.2045033 0.32564902 0.066103876 11442843 -0.12164261 -0.025772296 0.9922393 0.0019661519
1.2349908 0.32474199 0.06417644 11377048 -0.090084396 -0.010364822 0.99588025 0.00097106531
1.2650366 0.32332611 0.066821754 11245977 -0.12716104 0.0081073651 0.99184895 0.0018818132
1.2961307 0.32174453 0.069671452 11377050 -0.11557151 0.01563976 0.99317604 0.0027613656
1.1436096 0.33214927 0.062046677 11442841 -0.12126053 -0.0041520451 0.99261206 0.0029401062
1.1546125 0.33334669 0.06432274 11179672 -0.13029793 -0.03751903 0.99076474 0.002158504
1.1644782 0.33685935 0.065161556 11640223 -0.11078785 -0.0071553816 0.99381834 0.0024040663
1.1852294 0.33169615 0.067356318 11443101 -0.089496851 -0.053045064 0.99457359 0.0019057095
1.2077847 0.33577281 0.061463505 11180184 -0.11658477 -0.023727046 0.99289733 0.0016031096
1.2119617 0.33799094 0.069194674 11508636 -0.14344862 -0.029634118 0.989214 0.005025479
1.2408044 0.33592391 0.062957436 11245464 -0.080292478 -0.024782615 0.99646324 0.0008894261
1.2658672 0.33320361 0.06682387 11311257 -0.12499553 0.0072323112 0.99213094 0.0019995153
1.1241739 0.3407411 0.060528487 11048342 -0.10160767 -0.023093607 0.99455649 0.0010814773
1.1435628 0.34216139 0.064705819 11245720 -0.12942855 -0.015835827 0.99146229 0.0023808216
1.1694013 0.34813738 0.064769864 11442844 -0.10640517 0.001838021 0.99432117 0.0019159068
1.1840086 0.34694192 0.068908453 10983320 -0.10178247 -0.037889916 0.99408489 0.0022815689
1.1948974 0.34461671 0.065476954 11443101 -0.10633498 0.0027030408 0.99432671 0.004221085
1.2085797 0.34522516 0.061465532 11180184 -0.1119075 -0.035602558 0.99308068 0.0016249281
1.2169142 0.34955478 0.068910748 11508636 -0.14112234 -0.018219806 0.98982453 0.0045589525
1.2366153 0.34405664 0.064180613 11179671 -0.075878404 -0.034672752 0.99651408 0.00091268547
1.266698 0.34308112 0.066826016 11113878 -0.11793973 0.0047532483 0.99300939 0.0020642511
1.0905533 0.35355413 0.061614633 9995657 -0.56074643 0.82371551 0.084001407 0.0023249295
1.1174212 0.35106218 0.061751842 11048343 -0.10750464 -0.027331442 0.99382883 0.0014969277
1.1483436 0.35281813 0.064155869 11179672 -0.13835759 -0.012531165 0.9903031 0.0019890685
1.1733816 0.35916674 0.064700007 11508637 -0.070339411 0.013180442 0.99743605 0.0017106832
1.1846166 0.35601109 0.068886846 11048343 -0.10206866 -0.017909698 0.99461615 0.0024324313
1.1951047 0.35453045 0.066679746 11377308 -0.12026569 0.0054131523 0.99272698 0.0034807865
1.2043709 0.35303834 0.062726051 11114391 -0.12839176 -0.034324937 0.99112934 0.0013824294
1.233421 0.35243359 0.065159589 11179929 -0.081207089 -0.027082985 0.99632925 0.0011346522
1.2625167 0.35139671 0.06801185 11179672 -0.094094925 -0.011287658 0.99549925 0.0017879846
1.1137466 0.36832553 0.061265573 10324621 -0.45428947 0.52066731 0.72286004 0.0018948538
1.122062 0.36106205 0.061062455 10982550 -0.11278713 -0.051474463 0.99228495 0.0013414767
1.133015 0.36844516 0.060518324 11508637 -0.11452124 0.0076974109 0.99339098 0.0026053146
1.148558 0.36155489 0.065525889 11113879 -0.12885338 -0.04525109 0.99063075 0.0020622576
1.1573976 0.3654604 0.061057746 11508636 -0.1122289 -0.0047322065 0.99367112 0.0015178737
1.1758635 0.36601424 0.063039631 11311257 -0.10475455 -0.022086922 0.99425286 0.0032464883
1.2049699 0.36506534 0.063777998 11245721 -0.13703139 -0.028840305 0.99014682 0.0032102102
1.2292197 0.36042207 0.066382736 11048596 -0.079738311 -0.032967459 0.99627054 0.0011389415
1.2683594 0.36283612 0.066830277 11113878 -0.090017602 -0.0090129385 0.99589938 0.0016544204
1.2995301 0.36216566 0.069680154 11114136 -0.1105331 -0.00036110263 0.99387246 0.0026999726
1.1150736 0.37527111 0.06235975 10916246 -0.1110839 -0.051510092 0.99247521 0.0010985922
1.1235509 0.37351033 0.068004958 9732485 -0.56079012 0.82369876 0.083874159 0.0023236868
1.1332133 0.37792784 0.061668813 11442844 -0.12918311 -0.0087901503 0.9915818 0.0022212644
1.1497372 0.37914589 0.065483972 10982292 -0.10679466 -0.014801988 0.9941709 0.00094495132
1.1530524 0.37259907 0.064342886 11311257 -0.11980808 -0.014713204 0.992688 0.0013781603
1.1789162 0.37231621 0.060196817 11245464 -0.12029286 -0.058613081 0.99100667 0.0021822632
1.2054703 0.37476718 0.064384997 11245721 -0.13084842 -0.020221589 0.99119616 0.0031667394
1.2304294 0.3748056 0.066385835 11179415 -0.077358402 -0.0003537075 0.99700332 0.0018975246
1.2641717 0.37107572 0.068016082 11113876 -0.080005333 0.0032951888 0.99678904 0.0021462156
1.1054178 0.3838186 0.060808249 9600899 -0.56074643 0.82371551 0.084001407 0.0023249295
1.1164403 0.38825569 0.062245607 10719378 -0.10888295 -0.066167615 0.99185002 0.001218577
1.137382 0.3864001 0.065269016 10521999 -0.33139923 0.34012973 0.88004905 0.0020718006
1.1578014 0.38477367 0.063400954 11245464 -0.11973119 0.0032064468 0.99280119 0.0022147188
1.1785126 0.3803888 0.065514714 11245465 -0.13873979 -0.01405935 0.99022913 0.0051445579
1.1823692 0.38178617 0.069430232 10981779 -0.1053493 -0.013241922 0.99434716 0.001013484
1.2035772 0.38550296 0.065080993 11179671 -0.10044125 -0.020021563 0.9947415 0.0036710363
1.2649993 0.38091537 0.068018228 11179671 -0.08860305 -0.001243067 0.99606621 0.0025845484
1.1046181 0.39399385 0.062519819 10192776 -0.45119676 0.51121593 0.73149139 0.0021070875
1.1172382 0.39644504 0.068594575 9600386 -0.56074643 0.82371551 0.084001407 0.0023249295
1.1240553 0.3906149 0.068112656 9600897 -0.56079179 0.82369792 0.08387059 0.0023241786
1.1383116 0.39871299 0.062357485 11114391 -0.11172365 -0.0070341667 0.99371439 0.0030257814
1.1440785 0.39844158 0.066549569 10719120 -0.095036045 -0.023599688 0.99519408 0.00094125239
1.162716 0.39620757 0.06299156 11311257 -0.1162245 -0.020844378 0.9930042 0.0034419191
1.175967 0.39358416 0.064489916 11113878 -0.12046742 -0.055197287 0.99118149 0.0037678871
1.1870483 0.39228761 0.06880039 10981779 -0.10414523 -0.021719694 0.99432492 0.0012077859
1.2406762 0.39234334 0.064191014 11048085 -0.078532681 -0.0042640213 0.99690247 0.0027936159
1.2708515 0.39246869 0.066836655 11048085 -0.098897591 -0.022228371 0.99484938 0.0025442648
1.0719665 0.40766224 0.061579674 10455946 -0.0926397 -0.075552247 0.99282914 0.0061102821
1.1422729 0.40971947 0.062226385 11113878 -0.11704102 0.0047925413 0.99311554 0.0038355687
1.1726947 0.40765229 0.061804205 11179669 -0.11528249 -0.049874224 0.99207991 0.0033107391
1.1838044 0.40349922 0.06836687 10982036 -0.10750085 -0.029636707 0.99376315 0.0024400104
1.2087255 0.40481749 0.062737197 10916500 -0.066854261 -0.071384795 0.99520588 0.0036400808
1.2465121 0.40379095 0.062972099 10982292 -0.075170748 -0.058969941 0.99542552 0.0043979418
1.2666543 0.40059438 0.06802246 10982292 -0.091673099 -0.031229114 0.99529934 0.0028281703
1.0684333 0.41415095 0.062260211 10455946 -0.093515374 -0.054080404 0.99414796 0.0080772266
1.1089789 0.41021788 0.063690826 10587534 -0.085865326 -0.060779024 0.99445117 0.002013043
1.1226478 0.41359466 0.060195744 11179923 -0.1412544 -0.0094169751 0.98992854 0.0042758267
1.1437151 0.4154126 0.064951725 10850706 -0.093271911 -0.015499112 0.99552 0.0022302514
1.1678356 0.41744936 0.063772202 11245462 -0.12657291 0.01118236 0.9918943 0.0038016313
1.1707391 0.41373691 0.063316673 10916499 -0.10242376 -0.087501109 0.99088496 0.0039001962
1.1838524 0.41160023 0.06754142 11113876 -0.11642557 0.012576744 0.99311984 0.0039960244
1.2018714 0.41589147 0.064753652 10784913 -0.071978979 -0.087792136 0.99353492 0.0030413149
1.2390884 0.41982234 0.065174103 10850706 -0.072290897 -0.095422298 0.99280846 0.0036481691
1.2423005 0.41165805 0.064195186 10916499 -0.076786943 -0.091137171 0.99287355 0.003776283
1.3037795 0.4126921 0.069691062 10850706 -0.1062576 -0.038627032 0.99358815 0.0020074598
1.0531811 0.42341176 0.065022022 10324101 -0.12078632 -0.0012377452 0.99267781 0.0090011759
1.0988841 0.42251253 0.065491885 10389898 -0.035812609 -0.061333399 0.99747473 0.0037478053
1.1458021 0.4264563 0.065679587 10653326 -0.088404208 -0.017322099 0.99593407 0.0017906426
1.1680391 0.4271816 0.06495297 11048083 -0.11630853 0.0074974438 0.9931848 0.0036888632
1.1755267 0.42444795 0.062281996 10784913 -0.10130702 -0.077824444 0.99180657 0.0038939442
1.1840582 0.42143834 0.068735033 11179669 -0.10972447 0.020053135 0.99375975 0.0034301197
1.1936051 0.42174807 0.067020863 10784914 -0.074569933 -0.076294996 0.99429291 0.0030556826
1.2152951 0.4212364 0.067878962 11048343 -0.069827266 0.022344621 0.99730879 0.0016260025
1.2308381 0.42602184 0.067374021 10850447 -0.062632561 -0.12038102 0.99075001 0.0030895208
1.2640994 0.42824742 0.069212466 10784911 -0.059348378 -0.096268162 0.99358451 0.0027116023
1.0598533 0.43415087 0.063952476 10126722 -0.11435301 0.012399542 0.99336284 0.0082960222
1.1023747 0.43573704 0.062926695 10652556 -0.094799444 -0.03018529 0.99503869 0.0040013175
1.1497796 0.43903843 0.065976456 10390153 -0.090734325 -0.027487021 0.99549574 0.0010663798
1.1639845 0.43741158 0.065654963 10718861 -0.12472201 -0.063038848 0.99018711 0.0026227797
1.174156 0.43603039 0.063583821 10850704 -0.11208199 -0.021714512 0.99346167 0.0031045098
1.1960647 0.4338333 0.066441193 10850448 -0.089854516 -0.036083408 0.99530107 0.0025804038
1.2155055 0.43130136 0.069100082 11113365 -0.067805678 0.0099105015 0.99764931 0.0019972441
1.2215688 0.43169621 0.069818109 10718607 -0.064771384 -0.088470362 0.99397069 0.0038376788
1.0603956 0.44223928 0.063933209 10257540 -0.10755194 0.013294793 0.99411058 0.0084126079
1.098757 0.44282752 0.06569308 10191747 -0.10540102 -0.015939858 0.99430203 0.0054296716
1.1455728 0.44583139 0.064164989 10455689 -0.10008466 -0.031970561 0.99446511 0.0026411403
1.1687741 0.44814521 0.064620316 10521741 -0.10125742 -0.068058707 0.99252957 0.0025202101
1.1989238 0.44441003 0.066280276 10719630 -0.08657366 -0.028733615 0.99583101 0.0021206457
1.2214103 0.44221336 0.069323093 10784656 -0.074578404 -0.049645185 0.99597865 0.0029751321
1.0993186 0.4512049 0.065673113 10125954 -0.10377949 0.00014927053 0.99460036 0.0053050234
1.1363906 0.45785218 0.064268991 10455430 -0.080587 -0.015985765 0.99661934 0.0032247682
1.1484312 0.45778188 0.061004728 10324101 -0.1503223 -0.054229245 0.98714864 0.0032180166
1.1563489 0.45837545 0.062996835 10915468 -0.14014772 0.022273138 0.98988008 0.0029694168
1.1695385 0.45723313 0.064622253 10455946 -0.096568316 -0.078422375 0.99223208 0.0020564375
1.1770384 0.45508566 0.065104589 10916238 -0.11834271 0.017111715 0.99282539 0.0021524762
1.1994195 0.45404363 0.06688495 10719118 -0.083639838 -0.027507082 0.99611628 0.0016252305
1.2282069 0.4526796 0.068601191 10522252 -0.079907209 -0.068298087 0.99445981 0.0033381067
1.0806541 0.46326348 0.060577214 10191488 -0.12877716 0.0066987895 0.99165094 0.0062411525
1.0932754 0.46470785 0.066805691 10191745 -0.12072787 0.0015179871 0.99268448 0.0056293127
1.1029499 0.46095312 0.065150678 10125952 -0.095199853 -0.016164552 0.995327 0.0031596734
1.1125036 0.46739346 0.061054111 10783884 -0.09081126 -0.034274902 0.99527818 0.0038518752
1.1367801 0.46651709 0.061381519 10718859 -0.077695228 -0.0089625949 0.99693692 0.0039948844
1.1451529 0.4649502 0.062073141 10192513 -0.16784568 -0.048204467 0.98463404 0.0026697726
1.1662698 0.46458426 0.065660805 10389894 -0.11844554 -0.070400566 0.99046177 0.0033662606
