# .PCD v0.7 - Point Cloud Data file format
VERSION 0.7
FIELDS x y z rgb normal_x normal_y normal_z curvature
SIZE 4 4 4 4 4 4 4 4
TYPE F F F U F F F F
COUNT 1 1 1 1 1 1 1 1
WIDTH 538
HEIGHT 1
VIEWPOINT 0 0 0 1 0 0 0
POINTS 538
DATA ascii
2.553221 0.92536658 0.43867362 9338245 -0.99881703 0.03670143 -0.031900469 0.022277789
2.5645435 0.92253327 0.43221614 9469831 -0.99801826 0.014477117 -0.061237104 0.050553754
2.5576677 0.93186682 0.43008861 7563115 -0.9876464 -0.13896245 0.072416246 0.034413908
2.5566983 0.94689536 0.43540716 8352118 -0.99782801 -0.0077267913 0.065418489 0.038819347
2.5647211 0.94182026 0.43184066 9404038 -0.98497081 -0.13698906 -0.10519788 0.036482807
2.5611787 0.96759564 0.43190292 7366247 -0.99073434 -0.13282993 0.028316379 0.081625
2.5640054 0.98292708 0.43194985 8089460 -0.99709386 0.0064751962 -0.075907208 0.055787139
2.5470455 0.99610466 0.43402544 7103073 -0.95729131 -0.19361188 -0.21472758 0.12239377
2.548789 1.0138479 0.43492642 7037022 -0.91789669 -0.23113596 -0.32255521 0.11282671
2.5654318 1.0189681 0.43033868 8811899 -0.94390357 0.30929452 -0.11568449 0.028461093
2.5505326 1.0315911 0.43582734 6905434 -0.90018541 -0.270825 -0.34105736 0.097133964
2.4426095 -1.3748882 0.44066089 11048588 -0.98925596 -0.13037625 -0.066141605 0.075871125
2.4702907 -1.363436 0.44033146 11443092 -0.99135733 0.054332051 -0.11940993 0.03374964
2.4185135 -1.3450097 0.44164458 10786192 -0.99433976 0.00060388912 -0.10624531 0.069599405
2.4259644 -1.3473942 0.44126701 11114641 -0.99354559 -0.10762203 -0.035842959 0.057981428
2.4186826 -1.3266598 0.44128734 10851985 -0.99843132 -0.0044123484 -0.055816948 0.069055125
2.4266958 -1.3292183 0.44238031 11049617 -0.99690127 -0.074909329 0.024010554 0.068217196
2.4733217 -1.3250091 0.44200927 11837850 -0.99091494 0.12909415 -0.037714362 0.033121258
2.4448192 -1.3199725 0.44402462 11312020 -0.99821001 -0.017730568 -0.057117734 0.057860713
2.4188516 -1.3083096 0.44093007 10983830 -0.97933865 -0.082786985 -0.18450503 0.056503158
2.4455559 -1.3016675 0.44514585 11706778 -0.99604154 0.036412053 -0.081089064 0.051695138
2.4748373 -1.3057957 0.44284821 12232608 -0.97818089 0.15421483 -0.13921192 0.046609111
2.4190207 -1.2899595 0.44057283 11312284 -0.92469531 0.19560494 -0.32661501 0.07786686
2.4462924 -1.2833623 0.44626713 12035743 -0.99717176 0.010064432 -0.07447964 0.075284123
2.4763527 -1.286582 0.44368708 12561574 -0.9899531 -0.035528079 -0.13685986 0.029232515
2.4191897 -1.2716095 0.44021559 11641249 -0.89000005 0.29151899 -0.35059485 0.053495858
2.4364266 -1.2618091 0.44216055 11904422 -0.9088701 0.23508017 -0.3445178 0.051248237
2.4470291 -1.2650571 0.44738835 12102050 -0.98577255 0.061807442 -0.15630859 0.047872145
2.4778683 -1.2673686 0.44452602 12693673 -0.9841603 0.056636598 -0.16799085 0.025605725
2.4365969 -1.2433296 0.44180077 12233386 -0.93807495 0.22709508 -0.26161677 0.06748683
2.4793839 -1.2481551 0.44536489 12891827 -0.99080896 0.083191156 -0.10666254 0.036988601
2.4303529 -1.2383382 0.44794697 12562603 -0.99585754 -0.014016341 -0.089840412 0.024278374
2.4339256 -1.2225062 0.44525063 12693427 -0.95272362 0.27334696 -0.13266194 0.066487052
2.4808996 -1.2289416 0.44620383 12827066 -0.99895591 0.0081231743 -0.044956919 0.044057745
2.4540091 -1.2145317 0.44337583 12236207 -0.88779736 0.41421005 -0.20061396 0.081547953
2.4647174 -1.2015041 0.44558609 8615300 -0.99745071 0.071100622 0.0060688709 0.044835284
2.4541807 -1.1959227 0.44301352 4795203 -0.93189847 0.20870697 -0.29665914 0.097140133
2.4662223 -1.1824272 0.44641906 14207410 -0.99325436 0.074526757 -0.088834204 0.039875064
2.4543521 -1.1773137 0.44265124 12893361 -0.89050543 0.23383023 -0.39028656 0.082881704
2.4854462 -1.1713011 0.44872051 13484736 -0.99128515 0.071572803 -0.11059459 0.044706248
2.4545236 -1.1587046 0.44228894 13023932 -0.86296725 0.37711695 -0.33625939 0.063444965
2.4869616 -1.1520877 0.44955945 13681860 -0.98465729 0.012270361 -0.17406751 0.029017981
2.4717712 -1.1477388 0.44421121 13155518 -0.97999132 0.16420305 -0.11249153 0.054009814
2.4713402 -1.1270983 0.44638214 13484482 -0.99317664 0.016747156 -0.11541121 0.036834113
2.4721165 -1.1102618 0.44348156 13484483 -0.99732697 0.063999817 0.035254918 0.012068577
1.6490307 -1.1032565 0.44484755 9734533 -0.85455477 0.47141597 -0.21795225 0.062096518
1.6666378 -1.1007588 0.44744521 11377308 -0.89398271 0.43926433 -0.088554457 0.074414439
2.4668243 -1.1064197 0.44017094 13681860 -0.93888295 0.11577928 -0.32418212 0.053553175
2.4722414 -1.1061196 0.44975084 14010825 -0.97259104 0.012169302 -0.2322038 0.033633202
1.6754768 -1.0925723 0.44897377 11510701 -0.87201989 0.48789978 -0.039180327 0.064437032
2.4722891 -1.0915233 0.44311678 13812678 -0.99692839 0.077828437 -0.0087469295 0.023907112
2.4675663 -1.0879854 0.44130009 13813959 -0.88734829 0.36629006 -0.28007975 0.073029511
1.6765081 -1.0794977 0.44954467 9669002 -0.90590554 0.41971302 0.05635713 0.025805611
2.4724617 -1.0727848 0.44275194 13945036 -0.99257702 0.10792304 -0.056066956 0.039214309
2.468308 -1.0695509 0.44242924 14011340 -0.8774876 0.42928946 -0.21383667 0.071483105
2.4907222 -1.0614535 0.44479275 14076879 -0.97392833 0.18470292 -0.13171329 0.042147271
2.4864898 -1.0581006 0.44408232 14208465 -0.94937301 0.29559669 -0.10636512 0.071448803
2.490896 -1.0425779 0.44442528 14077392 -0.96954638 0.20520593 -0.13368021 0.04823447
2.4872367 -1.039537 0.44521934 14406098 -0.97166163 0.22205019 -0.081039473 0.054386105
2.4879837 -1.0209734 0.44635642 14340564 -0.98814243 0.06499853 -0.13910317 0.02667525
2.4729795 -1.0165693 0.44165751 14208978 -0.99601179 -0.041843768 -0.078801081 0.057113778
2.4887309 -1.0024099 0.44749349 14143183 -0.99218065 -0.0027617067 -0.12478009 0.039616283
2.4912438 -1.0048267 0.4436903 14208980 -0.99081933 -0.091252141 -0.099750817 0.051414937
2.472671 -0.97823572 0.44450146 14011342 -0.98813528 -0.058552522 -0.14198704 0.049804557
2.4734976 -0.96035379 0.44056308 14142674 -0.99275666 0.030155297 -0.11629663 0.047224995
2.4902248 -0.96528286 0.44976765 14208465 -0.97388422 -0.14039803 -0.17843182 0.043512519
2.4736702 -0.94161534 0.44019827 14274773 -0.98498124 0.048449475 -0.1657248 0.04119486
2.4919393 -0.92932421 0.44222039 14603736 -0.98378426 -0.059076551 -0.16934726 0.03350668
2.4921134 -0.91044861 0.4418529 14866910 -0.99296188 -0.10740897 -0.049900468 0.032742701
2.4883337 -0.87621075 0.44071841 15394022 -0.9027077 0.076273978 -0.42343965 0.044926703
2.4719608 -0.8513754 0.44012356 15262438 -0.86980152 -0.035138391 -0.492149 0.031768057
2.492635 -0.85382169 0.44075045 14933473 -0.99564773 0.093040749 0.005387526 0.042460173
2.473455 -0.83243507 0.44095057 15196645 -0.91677135 -0.14376788 -0.37264067 0.026549088
2.4749489 -0.81349468 0.44177753 15262438 -0.95744544 0.056635875 -0.28300282 0.039689723
2.4918821 -0.81549442 0.44080406 15129567 -0.98874778 -0.074834302 -0.12952898 0.029141469
2.4764428 -0.79455441 0.44260454 15262438 -0.93311733 0.26890877 -0.23870507 0.030158371
2.4926291 -0.79693085 0.44194108 15064287 -0.98188305 -0.13652939 -0.13139792 0.025524531
2.4769125 -0.774472 0.44299641 15327718 -0.95817822 0.1608645 -0.23667929 0.027585786
2.4780304 -0.75578475 0.44397449 15328232 -0.93913138 0.1536151 -0.30730227 0.036272377
2.4948702 -0.7412402 0.44535232 15262438 -0.94229048 0.18908349 -0.27628979 0.02886961
2.4809248 -0.73773348 0.44508547 15591403 -0.93122506 0.017760333 -0.36401165 0.036197726
2.4956172 -0.72267663 0.44648933 15327461 -0.97122884 0.085907832 -0.22211358 0.035256159
2.482419 -0.71879315 0.44591242 15591403 -0.88518435 -0.0094206622 -0.46514508 0.018649898
2.4963641 -0.70411313 0.44762641 15195875 -0.98308641 -0.027074045 -0.18113033 0.029908162
2.4839129 -0.69985282 0.44673944 15459817 -0.88994962 0.10231005 -0.44443485 0.024196515
2.4854069 -0.68091255 0.44756639 15525610 -0.8857196 0.23732269 -0.39897218 0.044023767
2.4971111 -0.68554956 0.44876349 15196645 -0.98987156 -0.026192045 -0.13952892 0.02863152
2.486901 -0.66197222 0.4483934 15328231 -0.90525335 0.27957782 -0.31992602 0.06284298
2.497858 -0.66698605 0.44990057 14998496 -0.97969729 0.0072958376 -0.20034993 0.033977922
2.4995153 -0.51719767 0.44093704 14999012 -0.98670036 0.11765785 -0.11215672 0.045944359
2.5016398 -0.5140546 0.44047305 12892866 -0.98166364 -0.07077691 0.17699479 0.069085941
2.5177982 -0.50172496 0.44258404 14801633 -0.98537678 0.016145619 -0.16962296 0.051382877
2.5034323 -0.49581149 0.44139937 12892866 -0.99983829 -0.0035635757 0.017629327 0.069446459
2.5010092 -0.48007056 0.44321114 14867426 -0.96896803 -0.19839561 -0.1474455 0.046920229
2.5052247 -0.47756848 0.44232574 12761280 -0.98219478 0.15131952 -0.1113368 0.032917112
2.48421 -0.45867458 0.4438225 14933219 -0.95510072 0.1250917 -0.2685791 0.057929989
2.5070176 -0.45932546 0.44325212 12761280 -0.98246384 0.1507262 -0.10975686 0.031523351
2.4849517 -0.4402402 0.44495165 14932450 -0.96700907 0.14720611 -0.20790358 0.057799846
2.50881 -0.44108245 0.44417849 12695741 -0.95762926 0.20422703 -0.20307004 0.041228086
2.5209789 -0.43645599 0.44084841 15130852 -0.98133421 0.0076504922 -0.19215801 0.053884547
2.5032501 -0.42437997 0.44662231 14735840 -0.99169207 0.066100217 -0.11035205 0.056120936
2.510603 -0.42283937 0.44510481 12695741 -0.98144656 0.059535671 -0.1822587 0.059238292
2.5043721 -0.41476923 0.44025266 15130852 -0.99286842 -0.026641713 -0.11620035 0.073082715
2.5039973 -0.40581644 0.44775939 14735840 -0.98524559 0.021412518 -0.16980205 0.05934798
2.5123954 -0.40459636 0.44603118 12629948 -0.99565417 0.0005579181 -0.093126357 0.057684056
2.5047443 -0.38725287 0.44889647 14537692 -0.98466623 0.037483461 -0.17037453 0.053749781
2.5141883 -0.38635334 0.44695756 12300983 -0.99215502 -0.083170064 0.093333706 0.064480491
2.4892275 -0.37455195 0.44046605 14669531 -0.94435519 -0.13608293 -0.29945752 0.050206531
2.5159807 -0.36811027 0.44788393 12300983 -0.99037409 0.0022775417 0.13839757 0.05544132
2.4907107 -0.35574821 0.44128704 14735324 -0.95418519 0.10242283 -0.28114101 0.065281279
2.4983876 -0.34382266 0.44967541 14471898 -0.99665773 0.081427239 0.0065538548 0.0056602168
2.5177732 -0.34986725 0.44881025 12234936 -0.97761506 0.19618002 0.076040618 0.040033963
2.4921939 -0.33694449 0.44210809 14670301 -0.9314127 0.25956818 -0.2551367 0.049060594
2.5195661 -0.33162424 0.44973662 12432569 -0.99428475 0.059550256 -0.088610172 0.043706719
2.5118423 -0.32006761 0.44438756 14735070 -0.93224597 0.25724441 -0.25444594 0.049433563
2.5133362 -0.30112728 0.44521457 14669277 -0.92908525 0.23731428 -0.28369462 0.051225372
2.5148301 -0.28218696 0.44604152 14603738 -0.93295097 0.15421662 -0.32529953 0.053986583
2.5163243 -0.26324666 0.44686854 14472152 -0.89093935 -0.16129507 -0.42451262 0.063634641
2.5178182 -0.24430634 0.44769549 14340312 -0.828668 -0.46853811 -0.30623761 0.059916671
2.4828739 -0.22287816 0.44554579 14143187 -0.95936978 -0.27629125 -0.05720821 0.058825783
2.5071485 -0.21890092 0.44107002 13683153 -0.99831933 -0.055124741 0.017885849 0.041309632
2.4843464 -0.20421101 0.44636089 14077394 -0.99864429 -0.043634929 -0.028384022 0.074248187
2.5078955 -0.20033738 0.4422071 13748946 -0.9984138 0.048359569 -0.028832065 0.031033864
2.4858189 -0.18554386 0.44717592 14011601 -0.90857381 0.37642813 -0.18109544 0.04752611
2.5089879 -0.18254021 0.44183046 12695743 -0.99385554 0.040429775 0.10303701 0.033398159
2.505543 -0.16771089 0.44949722 13945554 -0.87013793 0.35114884 -0.34576663 0.026654195
2.5111136 -0.16519228 0.44123664 11708333 -0.9817158 0.018365078 0.18946449 0.038009506
2.526989 -0.163967 0.44500786 13682382 -0.99863702 -0.05084309 0.011795193 0.041070979
2.5115151 -0.14586237 0.44388735 12563645 -0.98823398 -0.14906293 0.034261972 0.03686459
2.4954405 -0.12704749 0.44476533 12498108 -0.99248606 -0.12174686 0.012213351 0.032499794
2.4993756 -0.11051701 0.44423148 11313834 -0.99941152 0.033839762 0.0056121647 0.0526665
2.4940155 -0.10715048 0.44734198 13418953 -0.98936272 -0.050643247 -0.13636969 0.022784863
2.5011437 -0.092523903 0.44514516 11378857 -0.97371036 0.20293601 -0.10346577 0.028094744
2.4947574 -0.08871612 0.44847113 13353160 -0.99137175 0.028641181 -0.12791292 0.022273906
2.4954991 -0.070281737 0.44960028 13221061 -0.98272985 0.13282397 -0.12884055 0.024080738
2.5200136 -0.074620813 0.4458358 11181989 -0.98729229 0.1066076 -0.11785111 0.0361345
2.5217934 -0.056506529 0.44675562 11181989 -0.99365556 0.053797074 -0.098765552 0.033544537
2.5064478 -0.038544521 0.44788614 11116196 -0.99867034 0.051016025 -0.0074162185 0.030586809
2.5253534 -0.020277949 0.44859526 10984610 -0.99628192 0.075872421 0.040813982 0.026053118
2.5271335 -0.0021636803 0.44951507 10853024 -0.9911446 0.1243377 0.046611194 0.023888692
2.5140345 0.060832266 0.44006592 12761023 -0.9888007 0.043683458 0.14270592 0.016735468
2.5147817 0.079395831 0.441203 12694715 -0.99649543 -0.057794016 -0.060471583 0.033838671
2.5059831 0.095427901 0.4407827 12826555 -0.99154425 0.073988929 0.10660972 0.0008642794
2.5155287 0.097959369 0.44234008 12694717 -0.97969669 -0.077574998 -0.18486917 0.033017732
2.5025611 0.1091923 0.44085583 12563644 -0.98911369 -0.046665821 -0.13955794 0.028316136
2.5074556 0.11409506 0.44159776 12760760 -0.9915691 0.073645443 0.10661662 0.00086442893
2.5162756 0.11652294 0.44347709 12628924 -0.96745139 0.00018351898 -0.25305694 0.029871739
2.5089281 0.13276219 0.44241279 12760508 -0.97925097 0.1913051 0.066857822 0.019079097
2.5170226 0.13508648 0.44461417 12628924 -0.97962129 -0.00045665359 -0.20085312 0.039709818
2.5140851 0.15253969 0.44448954 12628922 -0.96947736 0.15184587 -0.19250049 0.044807997
2.5367203 0.16235968 0.44080755 10458007 -0.98054993 -0.19368412 -0.031754971 0.036428798
2.5185165 0.17221355 0.44688833 12365752 -0.97807354 0.1143127 -0.17408277 0.03501625
2.5303047 0.171728 0.44552028 12628922 -0.886388 0.14946924 -0.43814981 0.040338404
2.5385003 0.18047392 0.44172737 10523030 -0.98239672 -0.18642887 0.011878371 0.042928793
2.5192637 0.19077712 0.44802535 12365752 -0.96749443 0.21216953 -0.13761809 0.025547426
2.5230427 0.19685081 0.44289151 10523030 -0.99781215 -0.060647584 0.026320249 0.043705441
2.5317879 0.19053175 0.44634128 12431543 -0.91799295 -0.0074601583 -0.39652652 0.048924681
2.514818 0.20743078 0.44567302 12562615 -0.94164932 -0.039794888 -0.33423498 0.044801876
2.5200107 0.20934066 0.44916242 12234164 -0.97907609 0.18555127 -0.08355134 0.027877491
2.5248108 0.21484396 0.44380519 10194835 -0.97883874 0.18621761 -0.084839977 0.060770776
2.5162904 0.22609794 0.44648808 12496820 -0.98168212 0.013218981 -0.1900669 0.029829605
2.5265789 0.23283705 0.44471887 10260628 -0.94480675 0.30148336 -0.12824976 0.065695174
2.5362375 0.24694292 0.44880432 12562102 -0.99828917 0.053455189 -0.023691732 0.061151359
2.528347 0.25083026 0.44563255 10194835 -0.97796917 0.13807951 -0.15655802 0.096066169
2.5192354 0.26343223 0.44811815 12431029 -0.99639803 0.065395907 0.053984929 0.063056134
2.5301151 0.26882336 0.44654623 10129042 -0.98464578 0.027404923 -0.1723997 0.093032211
2.5318832 0.28681651 0.44745991 10194065 -0.97998685 0.055490371 -0.19117181 0.071678214
2.5509601 0.30727401 0.4481661 10128272 -0.99332261 0.1078708 -0.040915038 0.057353284
2.5354195 0.32280269 0.44928721 10062479 -0.98887271 0.040749919 -0.14307426 0.06713181
2.5393529 0.36200711 0.44069582 11838892 -0.99585909 0.090887003 0.0020645263 0.027593233
2.5413773 0.37948272 0.44039029 11904172 -0.99528646 0.075039469 -0.061432648 0.041955799
2.5401051 0.38069978 0.44184077 11838377 -0.99641407 0.084165744 -0.0086683342 0.030135335
2.5408573 0.39939249 0.44298577 11838377 -0.996369 0.075317025 -0.03970154 0.038733482
2.5416095 0.41808522 0.44413072 11706791 -0.99368215 0.032593511 -0.10739426 0.043804832
2.5423617 0.43677795 0.44527566 11509923 -0.99018705 -0.034307659 -0.13547191 0.036847409
2.5431137 0.45547068 0.44642067 11575205 -0.98503959 -0.098473974 -0.14142102 0.037651364
2.5438659 0.47416347 0.44756567 11509412 -0.99259734 -0.027659031 -0.11826029 0.033215225
2.526897 0.48907393 0.44815826 11312033 -0.98975939 0.029654091 -0.13963205 0.028410167
2.5449421 0.48622558 0.44063792 9536135 -0.98714614 0.049774118 0.15187204 0.028524902
2.5892792 0.48120737 0.4427743 11641509 -0.9659903 0.19059218 -0.17474928 0.12508014
2.5721831 0.49632367 0.44216472 11443873 -0.98066467 0.076597214 -0.18008249 0.15589298
2.5467103 0.50421864 0.4415516 9404547 -0.99621433 -0.041541539 -0.07636372 0.0560234
2.5453703 0.51154888 0.44985557 11115167 -0.99115825 0.12978992 -0.02756831 0.023253525
2.5736773 0.51526397 0.4429917 11246753 -0.97968501 -0.15627252 -0.12568279 0.13081209
2.5484784 0.52221173 0.44246528 9272961 -0.95125699 -0.27911991 -0.13115709 0.084832728
2.5565493 0.52997059 0.44236434 11180958 -0.99025202 0.12316094 -0.065056644 0.077566549
2.5317371 0.53590208 0.44363496 9272961 -0.98715383 -0.11943623 0.10612438 0.10514428
2.5580325 0.5487743 0.44318533 11246494 -0.99685985 -0.045474425 -0.064827628 0.04252743
2.5334926 0.55376655 0.44454214 9076354 -0.93894225 -0.012640734 0.34384257 0.061010964
2.5595157 0.56757802 0.44400632 11180447 -0.97499305 -0.16878229 -0.14457221 0.036545236
2.535248 0.57163095 0.44544926 9272963 -0.97246844 0.044853654 0.22867724 0.04362186
2.5195472 0.58508223 0.44657889 9207170 -0.98837316 0.02316056 0.15027373 0.047953375
2.5609989 0.58638173 0.44482738 11114908 -0.97657806 -0.15026397 -0.15400018 0.035897639
2.5387588 0.60735971 0.44726351 9141377 -0.99904615 0.025472097 0.03546828 0.072295941
2.543817 0.60040545 0.44417009 11048861 -0.97647387 -0.15264797 -0.15230711 0.024649067
2.5452895 0.61907256 0.44498515 10917788 -0.98024249 -0.12242391 -0.15536116 0.027628822
2.5405142 0.62522411 0.44817063 8878203 -0.99345309 0.10071777 0.05391708 0.071748741
2.5247777 0.63831192 0.44928178 8878205 -0.98591 0.11990318 0.11663899 0.065474957
2.546762 0.63773966 0.44580019 10786200 -0.98712128 0.065684095 -0.14586695 0.027721152
2.5482345 0.65640676 0.44661522 10654103 -0.9696213 0.13110386 -0.20650998 0.041684374
2.5455322 0.66166621 0.44540727 9733257 -0.99859625 0.01668988 0.050268989 0.047410734
2.5497069 0.67507398 0.44743031 10654103 -0.96552944 0.16397481 -0.20215145 0.039452281
2.5477912 0.68107229 0.44197458 10522519 -0.99827933 0.035222795 0.04688096 0.027973395
2.5485435 0.69976503 0.44311959 10390935 -0.9981302 0.03428572 0.050602112 0.026904654
2.5511794 0.69374108 0.44824535 10588310 -0.97532707 0.14250199 -0.16861303 0.021212885
2.5492957 0.71845776 0.44426453 10325140 -0.9982422 0.039221615 0.044432521 0.025880536
2.5526519 0.7124083 0.44906038 10390933 -0.98193765 0.038273107 -0.18529321 0.02460679
2.5520861 0.73411292 0.44764248 10193810 -0.99808705 -0.023939675 -0.057001308 0.029905193
2.5508001 0.7558431 0.44655448 10062481 -0.99196899 -0.11107028 0.06050596 0.029886717
2.533783 0.76880705 0.44715422 10128020 -0.98679626 -0.16190323 0.0045309071 0.02801621
2.5345302 0.78737062 0.44829124 10061970 -0.98620206 -0.16546807 0.0050793141 0.029560227
2.5352771 0.80593419 0.44942832 9930384 -0.99986422 0.015259325 -0.0062242453 0.036383688
2.5517242 0.80534214 0.44049034 8351861 -0.9693836 -0.0066050082 0.24546261 0.05393634
2.5721455 0.82957959 0.44112524 8089459 -0.93633783 0.19741806 0.29034051 0.050419673
2.0232735 0.83594096 0.4461396 6439467 -0.00057012582 -0.97843528 -0.20655298 0.012690995
1.7258977 0.84388715 0.44276521 6372134 0.23754232 -0.97080892 -0.033221785 0.0047305166
2.0715125 0.84387136 0.44659495 8217179 -0.45713234 -0.88443536 0.093830459 0.0209071
2.5739136 0.8475728 0.44203892 8023666 -0.95170403 0.08522816 0.29495034 0.089038119
1.7123767 0.85696286 0.44800454 4528149 -0.66555673 -0.72212648 -0.18859397 0.070902117
1.7541656 0.85291928 0.4437654 6962990 0.092810676 -0.9954139 0.02318209 0.010079868
1.7769977 0.85748965 0.44415867 6832166 0.18162306 -0.98331177 -0.010541708 0.008046411
1.8596153 0.85954064 0.44519913 7490350 -0.0088373553 -0.99991673 -0.0094045149 0.0092695234
1.9045616 0.85892928 0.44540447 7949618 -0.04109085 -0.99868983 0.030498212 0.0052620484
1.9897139 0.8547765 0.44644028 7161910 -0.14015037 -0.99003404 0.013806654 0.019500108
2.0370154 0.85829461 0.44708961 7885635 -0.47587368 -0.87562597 0.082604304 0.021148564
2.05952 0.85350507 0.4470478 7951168 -0.47798645 -0.87472373 0.079920039 0.021745862
1.6962016 0.86109179 0.44457495 4003846 -0.76394367 -0.5693804 -0.30363798 0.062643446
1.8133272 0.86296982 0.44489461 7095079 0.058421232 -0.99807614 -0.020760594 0.0052945525
1.8264204 0.86269963 0.44444135 7621170 0.011326501 -0.99824631 0.058103248 0.0023906764
1.8412149 0.86376333 0.44525194 7490350 0.011133509 -0.99978381 -0.01756032 0.0080931569
1.8864434 0.86175632 0.44356978 7686962 -0.026192905 -0.99950385 0.017492216 0.008026124
1.9184681 0.8607024 0.44592208 7555889 -0.022145186 -0.99767524 0.064448982 0.0068147457
1.9452701 0.86500835 0.44331622 7621681 0.0064041386 -0.99994022 0.008863952 0.0045204461
1.975181 0.86700416 0.44360694 7621937 0.019419225 -0.99981046 -0.0013924524 0.0090132179
1.9814557 0.86205715 0.44670257 7555376 0.060282789 -0.99758303 0.034556068 0.0048648501
2.0260561 0.86796135 0.44755593 7161650 -0.24070834 -0.97013187 0.030061439 0.041076727
2.5756817 0.86556578 0.4429526 7891826 -0.99177897 -0.085687071 0.095038593 0.10235933
1.7044654 0.87817341 0.44591701 4068876 -0.76517367 -0.55304098 -0.32962868 0.070632346
2.0032964 0.87025434 0.44562447 7686965 0.041195091 -0.99735612 0.059864901 0.013200646
2.047534 0.87632805 0.44957483 7490864 -0.26678383 -0.96316576 0.033735629 0.032679174
2.5440896 0.87408948 0.44708717 8746365 -0.99832875 0.057782315 -0.00095528382 0.07037545
1.6882876 0.88199753 0.44249332 5646861 -0.55175102 -0.76945525 -0.321729 0.08169248
1.6657897 0.89430457 0.44987154 6241061 -0.29190058 -0.95233923 -0.088567168 0.01904957
2.5472133 0.89689082 0.44944489 9470344 -0.98778266 0.12971359 -0.086370729 0.046375789
2.5605013 0.89466411 0.44502601 7891308 -0.98912692 0.12650406 0.0749982 0.098547086
1.6577517 0.90210748 0.44798419 6765585 -0.29785162 -0.94857842 -0.10716077 0.018739453
2.5622568 0.91252857 0.44593313 7694699 -0.99285966 0.081649624 0.086966015 0.068041585
2.5475662 0.9351905 0.44869924 9404038 -0.98801291 -0.12078017 -0.096138895 0.053832483
2.5662055 0.93388575 0.44353116 8483704 -0.99891669 -0.041536067 0.020982625 0.049670193
2.5657675 0.94825727 0.44774738 7497322 -0.99040508 -0.071642436 0.11817454 0.074225232
2.5488014 0.95674717 0.44859397 8220789 -0.97036445 -0.21367408 -0.11285481 0.074679039
2.5698712 0.95604581 0.44103709 9207172 -0.99774629 0.067099877 -0.00014445186 0.018770296
2.5547254 0.9627521 0.44096357 9075586 -0.99606287 0.079094484 0.04003622 0.024691457
2.547919 0.97349024 0.44795358 9009793 -0.99513012 0.023223698 -0.095795341 0.051518302
2.5713437 0.97471303 0.44185215 9141377 -0.99671376 0.078064561 -0.021627374 0.017060615
2.5554776 0.98144495 0.44210851 9009791 -0.99401689 0.10883681 0.0092178285 0.020514419
2.5692785 0.98398608 0.44956169 7234407 -0.90537149 -0.34382394 -0.24917367 0.11900036
2.5728161 0.99338019 0.44266719 9075582 -0.99658751 0.079676308 -0.021566631 0.017056201
2.5562298 1.0001377 0.44325352 8812412 -0.97781909 0.20691137 -0.032520626 0.024045955
2.5663347 1.0000461 0.44997191 8944000 -0.96656787 0.2420508 -0.084605008 0.027456388
2.556982 1.0188303 0.44439846 8680315 -0.97455573 0.22368287 0.014391751 0.031372972
2.5665123 1.0193331 0.44959641 8811899 -0.9394272 0.31262389 -0.14050958 0.025694929
2.5742886 1.0120473 0.44348225 8812410 -0.96429187 0.2611047 -0.044334058 0.023991797
2.5577343 1.0375232 0.44554347 8614774 -0.96922314 0.24148355 0.047877312 0.027561065
2.5757611 1.0307144 0.44429731 8680824 -0.93826276 0.32557887 -0.11688221 0.027178572
2.5961432 1.0574467 0.44659752 8613742 -0.92351657 0.36321267 -0.12326302 0.022184899
2.4279988 -1.4031756 0.45561016 10851983 -0.95899582 0.27177623 0.08040338 0.063284479
2.4461315 -1.3944556 0.45734829 10786445 -0.99839312 0.021287758 0.052516863 0.074160203
2.4516344 -1.3932589 0.4562844 11049615 -0.97947067 -0.03017051 -0.19931628 0.046217095
2.4707539 -1.3836423 0.45865649 11377553 -0.96311271 -0.007871314 -0.26898339 0.04467852
2.4468682 -1.3761504 0.45846951 11048847 -0.98814976 -0.14469226 0.051226947 0.070179686
2.4722695 -1.3644288 0.45949543 11706007 -0.94881189 0.14251125 -0.28186283 0.054660447
2.4195416 -1.3446624 0.45996678 10983571 -0.9678421 -0.0044043041 -0.25152013 0.071206458
2.4301929 -1.3486475 0.45895016 11048848 -0.98717552 -0.13185298 -0.089996107 0.055421285
2.4561489 -1.3360282 0.45878321 11574932 -0.95321774 0.24046414 -0.18317477 0.041603424
2.4200487 -1.2896123 0.45889503 11312538 -0.98858094 0.12191158 -0.088573918 0.049840342
2.4202178 -1.2712623 0.45853776 11707042 -0.95577794 0.26202211 -0.13354026 0.059283093
2.4378026 -1.2245004 0.45989245 12431279 -0.94481385 0.32072902 -0.066781752 0.066817299
2.449239 -1.2101414 0.45075208 12499130 -0.96870273 0.24820843 -0.0027606639 0.048784956
2.4674039 -1.1998626 0.45245957 4138278 -0.96358931 0.26248965 -0.050940081 0.049282409
2.438143 -1.1875415 0.4591729 10000287 -0.97906643 0.13582362 -0.15159473 0.070539355
2.4507122 -1.1735311 0.45299453 13483189 -0.98425776 0.10820214 -0.13974623 0.058007155
2.4383132 -1.1690619 0.45881316 13744810 -0.93023646 0.29295987 -0.22098577 0.079121113
2.4514487 -1.155226 0.45411575 13352380 -0.95591766 0.18497607 -0.22804682 0.049376257
2.4521854 -1.1369208 0.45523703 13417922 -0.95633286 0.21001069 -0.2032807 0.048146151
2.4529219 -1.1186156 0.45635825 13549760 -0.95612937 0.1671221 -0.24059701 0.055090372
1.6503578 -1.1039224 0.45769924 10720411 -0.78495699 0.60270405 -0.14349352 0.051083028
2.4536586 -1.1003104 0.45747948 13681862 -0.96601069 0.20707026 -0.15474267 0.066511504
1.6591878 -1.0959287 0.45928007 9800595 -0.83843386 0.5441885 -0.029792743 0.048003636
2.4543951 -1.0820051 0.4586007 13813448 -0.9164108 0.3694303 -0.15398876 0.066636376
2.4737461 -1.0870427 0.45058376 14142411 -0.97818822 0.053519551 -0.2007076 0.03665562
1.6775395 -1.0664232 0.4501155 9996684 -0.93205649 0.33907464 0.12766826 0.015756113
2.475251 -1.0679657 0.45141673 14471891 -0.99411571 0.024428729 -0.10553287 0.04237207
1.6873757 -1.0585744 0.45177567 9865352 -0.89818788 0.39926496 0.18397284 0.018470325
1.6884124 -1.0454316 0.45234954 9865868 -0.91233969 0.34439987 0.22141591 0.02120208
2.4767556 -1.0488888 0.45224965 14537684 -0.99056149 -0.13549189 -0.020733714 0.026076023
1.6982648 -1.037378 0.45401868 9996938 -0.90716356 0.39497805 0.1450749 0.032458324
2.4782605 -1.0298119 0.45308262 14537684 -0.9894498 -0.14407408 -0.015227893 0.020937651
2.4619596 -1.0038766 0.45239931 14603734 -0.98515266 -0.067750663 -0.15774715 0.020489728
2.4634535 -0.98493636 0.45322627 14406357 -0.98012161 0.0013830058 -0.19839294 0.020553151
2.4743748 -0.97873771 0.45963797 13945806 -0.99619335 -0.041002009 -0.076926924 0.042598173
2.4649475 -0.96599603 0.45405328 14537430 -0.95882624 0.22739045 -0.17013478 0.026611835
2.4745474 -0.9599992 0.45927316 14142926 -0.99520564 -0.01495586 -0.096654348 0.036424588
2.4664416 -0.9470557 0.45488024 14537430 -0.98231298 0.15042882 -0.11150073 0.047928382
2.4741101 -0.9408856 0.45462084 14274514 -0.98700565 0.036866914 -0.15639926 0.066560894
2.4857845 -0.9344272 0.45724732 14800602 -0.9905622 0.071024336 -0.11722688 0.04525942
2.4748926 -0.92252219 0.45854354 14340051 -0.99985164 0.014119189 -0.0098725632 0.025513692
2.4567659 -0.91599643 0.45088315 14800602 -0.9756363 0.13665666 -0.17163581 0.092566654
2.4694295 -0.90917504 0.45653421 14866906 -0.98216498 -0.1443751 -0.12044815 0.067695647
2.4750652 -0.90378368 0.4581787 14735324 -0.99854565 -0.053867679 -0.0022129826 0.023518482
2.4924657 -0.90959215 0.45317882 14998494 -0.94868547 0.21508071 -0.23181075 0.099519037
2.4932127 -0.89102864 0.4543159 15064289 -0.96820188 0.11195893 -0.22371942 0.10541262
2.4530535 -0.88419622 0.45580906 15327459 -0.96734667 -0.17584355 -0.18253648 0.071318291
2.4752378 -0.88504517 0.45781392 14998496 -0.99716455 0.075201228 0.0027855821 0.035049856
2.4724176 -0.87129438 0.45818818 15393254 -0.96377271 -0.09482909 -0.24929832 0.066078737
2.4759393 -0.86653984 0.45614949 15130081 -0.99954486 -0.019181363 -0.02328568 0.028860003
2.4936924 -0.85346454 0.45959744 15130080 -0.99823409 0.050538473 -0.031219881 0.033799991
2.4560199 -0.84658867 0.45745111 15459815 -0.94419539 -0.058665574 -0.32411951 0.062210064
2.4772096 -0.8483386 0.45597905 15130082 -0.9990254 -0.0081110699 -0.043387149 0.028267458
2.4954538 -0.83533806 0.45772707 15130082 -0.99914342 0.0067169648 -0.040833265 0.030105472
2.4575031 -0.82778496 0.4582721 15328231 -0.96798754 -0.049351782 -0.24609877 0.043432806
2.4757557 -0.82882971 0.45671946 15130082 -0.99307644 -0.11379834 -0.029140379 0.041454535
2.4962008 -0.81677443 0.45886415 15064289 -0.99772203 -0.016044607 -0.065523855 0.020375177
2.4589047 -0.80688131 0.45653969 15196133 -0.99389374 0.078104012 -0.077942304 0.018052176
2.4604695 -0.79017752 0.45991415 15328229 -0.95043117 0.26202983 -0.16739474 0.021799503
2.4777679 -0.79219407 0.45767817 14932702 -0.99767089 -0.067770928 -0.0077448166 0.015913803
2.4762735 -0.77261406 0.45562503 15065059 -0.99553615 0.069423929 0.063938566 0.01188101
2.4764462 -0.75387555 0.45526022 15196391 -0.99837291 0.0096334778 0.056204278 0.00086421211
2.4766188 -0.73513705 0.45489541 15262184 -0.99839836 0.0094548017 0.055779323 0.00086416543
2.4767916 -0.71639854 0.4545306 15196391 -0.99840361 0.0096743023 0.055648394 0.00086422887
2.4769642 -0.69766009 0.45416576 15130598 -0.99838287 0.0096809901 0.056018312 0.00086438883
2.4771369 -0.67892158 0.45380098 15130598 -0.99837714 0.0098605864 0.056087848 0.00086432905
2.4773095 -0.66018307 0.45343614 14999012 -0.99836975 0.0097001428 0.056246806 0.00086419139
2.4774821 -0.64144456 0.45307136 15262184 -0.99997711 0.0038043512 0.0055950135 0.0120547
2.4810808 -0.64428937 0.45046538 15261414 -0.99105394 -0.0015725605 -0.133453 0.02816085
2.5063913 -0.64728779 0.45071375 15525610 -0.95744127 0.17954724 -0.22598438 0.081642523
2.4776547 -0.622706 0.45270652 15327977 -0.99909854 0.042426318 -0.0014443249 0.011510763
2.4818223 -0.62585503 0.45159453 15196391 -0.95350534 0.27198949 -0.12980485 0.059763338
2.5078959 -0.6282109 0.45154667 15591403 -0.98585707 -0.082502857 -0.14587393 0.071629651
2.5000992 -0.6112954 0.45331174 15196391 -0.94804096 0.29032966 -0.13010402 0.068541571
2.4778273 -0.60396743 0.45234171 15196391 -0.99837881 0.0098161455 0.056066826 0.00086438388
2.4913831 -0.60515124 0.45087433 15525610 -0.95739794 -0.22440188 -0.18174987 0.057268482
2.5183861 -0.59647751 0.45504493 15130598 -0.98627347 0.082600139 -0.14297543 0.080141269
2.4764242 -0.58379686 0.45108351 15327977 -0.99783719 0.011400924 -0.064737029 0.033825975
2.5015931 -0.57416832 0.45558584 15130598 -0.93495256 -0.16874552 -0.31207156 0.070022404
2.477252 -0.56502575 0.45131159 15393770 -0.9886865 0.10616102 -0.10596655 0.04414339
2.5023401 -0.55560482 0.45672292 15064805 -0.96223706 -0.15492176 -0.22382843 0.064044386
2.47808 -0.54625463 0.45153973 15327976 -0.97193438 0.20785792 -0.11017617 0.037094776
2.4855316 -0.53368324 0.45724028 15064805 -0.95221841 0.23827006 -0.19106956 0.040479746
2.4789081 -0.52748346 0.4517678 15262183 -0.97833025 0.15979224 -0.13166754 0.036724184
2.498853 -0.51044959 0.45500922 15262438 -0.98443472 0.10220326 -0.14297804 0.037325326
2.5038342 -0.51847768 0.45899707 14999266 -0.98741692 0.089093015 -0.13065341 0.048754554
2.5003471 -0.4915092 0.45583618 15262438 -0.96306753 0.1371627 -0.23170541 0.033845708
2.5018411 -0.47256893 0.45666319 15327977 -0.94267774 0.17168066 -0.28615475 0.031057911
2.503335 -0.4536286 0.45749015 15065059 -0.95016581 0.10360256 -0.29402646 0.034568213
2.5048292 -0.43468827 0.45831716 15065059 -0.94521421 0.23269798 -0.22895816 0.045020517
2.5063231 -0.41574794 0.45914412 14933473 -0.99225175 -0.0084779896 -0.12395425 0.080292277
2.507817 -0.39680761 0.45997113 14866910 -0.97175431 -0.22454247 -0.072624043 0.059688766
2.4911642 -0.3755236 0.4592213 14801117 -0.99252772 -0.10848 -0.055864684 0.034658827
2.4982135 -0.36269829 0.4500429 15323070 -0.99971086 0.015986795 0.017964574 0.0061768675
2.5054913 -0.36868933 0.45003355 14340312 -0.98516893 0.070314333 -0.15651865 0.04461715
2.5062382 -0.35012576 0.45117056 14406105 -0.97230291 0.17190933 -0.15834858 0.058038771
2.5069852 -0.33156222 0.45230764 14471898 -0.94427919 0.24652468 -0.21808802 0.039070733
2.5233393 -0.31408948 0.45234841 13353671 -0.95973432 0.050216168 -0.2763845 0.042168051
2.5084791 -0.29443511 0.4545818 14406105 -0.95581228 0.095769182 -0.27794105 0.037153155
2.5231514 -0.29513815 0.45158938 12103350 -0.97622681 -0.15881899 -0.14750564 0.038744889
2.5080466 -0.27562213 0.45421135 13156551 -0.98635286 -0.11784348 -0.11498267 0.023229389
2.50931 -0.25728321 0.45523977 13024709 -0.99922997 -0.012683964 -0.0371284 0.039955769
2.5105734 -0.23894431 0.45626819 13024452 -0.99759609 0.037165254 -0.058487512 0.054445703
2.511837 -0.22060537 0.45729667 12827073 -0.9941839 -0.043017827 -0.098731205 0.045114845
2.5139866 -0.20291555 0.45638308 11642542 -0.99943542 -0.0078120586 0.03267771 0.045513649
2.5157666 -0.18480125 0.4573029 11774128 -0.976215 -0.021040034 0.21578172 0.020546375
2.5004613 -0.16598107 0.45836279 11642542 -0.97257417 -0.063999422 0.22361502 0.019758709
2.5070262 -0.14890715 0.45031822 13813968 -0.89165908 0.10948969 -0.43926772 0.046650555
2.5193267 -0.14857265 0.45914254 11642540 -0.99744236 -0.047124341 0.053740442 0.027982127
2.5085094 -0.13010342 0.45113927 13682636 -0.91540796 -0.16275911 -0.36815453 0.033786889
2.4917088 -0.11087529 0.45043612 13616843 -0.92168587 -0.20741816 -0.32783064 0.035193022
2.4931812 -0.092208147 0.45125115 13419210 -0.9721933 -0.12716818 -0.1966431 0.031953383
2.4946537 -0.073541 0.45206624 13419210 -0.98561567 0.01613245 -0.16823062 0.030195916
2.4961834 -0.053360611 0.45180535 13287367 -0.99665481 0.033046596 -0.074747674 0.023748368
2.4975986 -0.0362067 0.45369631 13287367 -0.99161762 0.073581412 0.10620844 0.00086453231
2.5146186 -0.033265468 0.45244062 13024452 -0.97936475 0.04412258 -0.1972256 0.026585801
2.4983978 -0.016259091 0.45374957 12958401 -0.99588299 0.077355623 -0.047257021 0.027162142
2.4808199 0.0030498542 0.45351899 12695230 -0.97547865 0.15984575 -0.15129703 0.0540381
2.5005434 0.0011275923 0.45532644 13089986 -0.99155802 0.073735848 0.10665701 0.00086440082
2.5020158 0.01979471 0.45614147 12958400 -0.99161023 0.073684998 0.10620569 0.00086449838
2.5117521 0.015434859 0.45062718 10721436 -0.99286956 0.099144883 0.066184379 0.023958584
2.5168595 0.022425178 0.45585185 12761023 -0.96567482 0.25974298 -0.0023900419 0.040427931
2.5034883 0.038461871 0.45695657 13023680 -0.99549556 0.082067564 0.047471412 0.013485172
2.5306933 0.034064919 0.45135471 10721436 -0.99620497 0.076617271 0.041298032 0.026216654
2.5176065 0.040988702 0.45698887 12761023 -0.98143804 0.18897486 -0.032679185 0.020226724
2.5049608 0.057128999 0.4577716 12957887 -0.99157512 0.073789842 0.1064603 0.0008644957
2.5183535 0.059552256 0.45812595 12826303 -0.99953347 0.009691542 -0.028963834 0.027186079
2.5324733 0.052179247 0.45227453 10852765 -0.99679118 0.077394381 0.020431638 0.022678321
2.5170562 0.069414258 0.45336816 10786718 -0.9979434 0.021506425 0.060387015 0.024599386
2.5064332 0.075796157 0.45858663 12892607 -0.99158049 0.073762216 0.10642996 0.00086448406
2.5191007 0.078115821 0.45926303 12826303 -0.98991442 -0.12781587 -0.061094943 0.024779046
2.5188243 0.087407351 0.45428184 10589339 -0.99257463 0.10552027 0.060507152 0.025671493
2.5079057 0.094463289 0.4594017 12826814 -0.9915415 0.073895417 0.10670036 0.00086431758
2.5205925 0.1054005 0.45519552 10655132 -0.97909659 0.20095262 -0.031431764 0.022879135
2.5395932 0.12463638 0.45595381 10655132 -0.99021786 0.13278218 -0.042866528 0.031266425
2.5413733 0.14275071 0.45687363 10589593 -0.99287319 0.07617113 -0.091656059 0.029975785
2.5258968 0.15937987 0.45793656 10589593 -0.97922802 -0.20274815 -0.0023964942 0.037183072
2.5276649 0.17737304 0.45885018 10458007 -0.98143548 -0.17990208 0.066480912 0.03623898
2.5294328 0.19536613 0.45976385 10326421 -0.99413198 -0.098387904 0.04496032 0.040362649
2.5207577 0.2279042 0.4502995 12168373 -0.98575515 0.15786795 -0.058004949 0.029564034
2.5215046 0.24646777 0.45143658 12299189 -0.99746305 0.029010462 -0.065007128 0.017337605
2.5050097 0.26055449 0.45676297 12628649 -0.89691305 0.39251998 0.2036545 0.017496521
2.5222516 0.26503125 0.4525736 12233650 -0.99744844 0.02947161 -0.065023452 0.017346084
2.5231872 0.28267887 0.45629796 12102066 -0.9694677 0.23590671 0.066935591 0.018422429
2.5392041 0.2845504 0.45044637 12168371 -0.98851216 0.15114082 -0.00045871735 0.06013206
2.5237455 0.30215836 0.45484775 11970478 -0.99907726 -0.01265812 -0.041042451 0.021831825
2.5406873 0.30335414 0.45126736 12036271 -0.9508332 0.30581298 -0.048935466 0.027556872
2.5244927 0.32072189 0.45598483 12036010 -0.9974162 0.063737974 -0.033142719 0.025526175
2.5421705 0.32215786 0.45208839 12167855 -0.96269447 0.23734607 -0.12994739 0.037660118
2.5252397 0.33928546 0.45712185 11904170 -0.99073631 0.13219222 -0.031094849 0.025310291
2.5371876 0.34079584 0.45020089 10062477 -0.98353368 -0.13112457 -0.12436977 0.029329697
2.5436537 0.34096158 0.45290941 11970478 -0.9839775 0.10786204 -0.14196528 0.046506349
2.5389557 0.35878894 0.45111457 10062477 -0.97569478 -0.0033156425 -0.21910918 0.029495671
2.5451369 0.35976529 0.4537304 12035756 -0.99687612 -0.0047273622 -0.078839161 0.056194451
2.5437016 0.36071819 0.45888156 11773099 -0.99301803 0.11220726 -0.036396354 0.026719034
2.5432646 0.37839875 0.4553636 11180961 -0.98844445 0.073177457 -0.13275045 0.041227322
2.5444071 0.39704764 0.45581755 11180448 -0.98981941 0.075314395 -0.12076988 0.048865005
2.5246017 0.41485208 0.45629418 11641000 -0.99749458 0.070584178 0.0047447537 0.065714754
2.5469232 0.41447246 0.45502454 10851738 -0.9944641 0.10263848 -0.022506287 0.051869214
2.5445035 0.434028 0.45658091 10785946 -0.99859715 0.040894162 0.033635866 0.053124934
2.55107 0.43498027 0.4570145 11838377 -0.99965352 0.013008154 -0.022882642 0.069709986
2.5477958 0.44875464 0.4556829 9668491 -0.99314225 0.081228115 0.084086448 0.025901748
2.5431557 0.45644444 0.45801976 11509414 -0.99849927 -0.041273229 -0.035996482 0.066427097
2.5525532 0.45378399 0.4578355 11707304 -0.90272856 0.19298869 -0.3844952 0.071456172
2.5495639 0.46674773 0.45659658 9536905 -0.99945778 0.030472662 0.012477756 0.042584218
2.5251272 0.47189033 0.45518374 11575205 -0.99747008 0.033981115 -0.06244038 0.061775323
2.551332 0.48474088 0.45751026 9667721 -0.99149001 -0.10035848 -0.08291962 0.048988365
2.5253024 0.49090302 0.4548136 11312548 -0.98737311 0.13328421 -0.085613377 0.048820205
2.5555196 0.49139151 0.45947754 11378339 -0.87696099 0.11599983 -0.46635118 0.11215634
2.5383773 0.50610507 0.45871386 11312546 -0.95259112 0.23738353 -0.19031361 0.080843501
2.5531001 0.50273395 0.45842394 9404547 -0.96872693 -0.14430222 -0.20185414 0.039036639
2.5363259 0.51656371 0.45947942 9207938 -0.95566595 -0.1231644 -0.26745689 0.051815528
2.543685 0.5138939 0.45690131 11115167 -0.97972852 0.19023824 -0.062781855 0.027504094
2.544992 0.53164268 0.45376453 11049373 -0.99887341 0.043169204 -0.019707784 0.034670096
2.5468748 0.54893434 0.45214558 11049374 -0.9995178 -0.029895589 -0.0083991289 0.035798553
2.5440378 0.55219358 0.45615566 11049374 -0.99751717 -0.061609887 -0.034113321 0.021859759
2.5298851 0.56332803 0.45270652 11114654 -0.99856329 0.053578444 -0.00083120167 0.036793221
2.5442142 0.57134348 0.45578283 10983581 -0.99954224 0.008299401 -0.029093243 0.023626085
2.5483792 0.58631974 0.45443553 11048861 -0.99557728 0.088532694 0.031431541 0.040666498
2.5443907 0.59049332 0.45541 10983322 -0.99856728 0.048664045 0.022255909 0.012672218
2.5468493 0.60732782 0.45530882 10851483 -0.99458891 0.10385086 0.0028029839 0.017584931
2.5473137 0.62624907 0.45569491 10719897 -0.9997077 0.023228066 -0.0067002252 0.017677536
2.54492 0.64794278 0.45429155 10588310 -0.99855673 0.029701086 -0.044746764 0.021690533
2.5506358 0.64239794 0.45787042 10523032 -0.99910176 -0.0060640555 -0.041938975 0.02359047
2.5450964 0.66709268 0.45391873 10523030 -0.99590659 -0.033998773 -0.083750904 0.026573764
2.551388 0.66109067 0.45901543 10457237 -0.995031 0.095883869 -0.026825398 0.020804644
2.5457807 0.67881727 0.45089206 8812410 -0.99458659 -0.04024763 0.095800363 0.045462105
2.5452728 0.68624252 0.45354593 10457237 -0.99790949 0.056418914 -0.031522922 0.039274558
2.5300083 0.69154161 0.45198473 8680824 -0.99114901 0.0082168272 0.13249961 0.031686142
2.5317519 0.70928472 0.45288572 8550010 -0.98974788 0.058542434 0.13027664 0.034285653
2.5636694 0.71074176 0.45560426 10390931 -0.97840112 0.18441093 -0.093401991 0.028293846
2.5510468 0.73241031 0.45361343 8418424 -0.98128009 0.17871872 0.071757287 0.032368794
2.5638471 0.73002875 0.45522875 10325140 -0.96911222 0.12375758 -0.21332054 0.02489415
2.5555968 0.74974263 0.45069051 10193552 -0.99539644 -0.037963547 -0.088003695 0.028896481
2.5640249 0.74931568 0.45485327 10127761 -0.96438223 -0.042049922 -0.26114887 0.021793298
2.5528023 0.7502749 0.45452055 8286584 -0.9583407 0.27289298 0.084336251 0.028668143
2.5558133 0.76827449 0.45346665 9272964 -0.99379116 0.084715664 0.072127432 0.034361899
2.5642025 0.76860261 0.45447779 10127759 -0.97666001 -0.09530364 -0.19249053 0.036786638
2.546155 0.78199172 0.45168179 10193554 -0.97753441 -0.13570485 -0.16127859 0.039230891
2.5574274 0.78654033 0.45432776 9207428 -0.98630869 0.11602134 0.11719318 0.032988958
2.5463314 0.80114156 0.45130897 10062227 -0.98196948 -0.10467582 -0.15741342 0.037552916
2.5580685 0.80386806 0.45724198 8221045 -0.95969677 0.05624608 0.27535152 0.044090264
2.5600142 0.80574417 0.45313567 10062481 -0.9946385 0.086244568 -0.057063028 0.023369383
2.5360241 0.8244977 0.4505654 9864589 -0.99682683 0.073651902 -0.030195326 0.024930492
2.5465078 0.82029146 0.45093617 9930641 -0.9873327 0.0025488972 -0.1586431 0.037956588
2.559824 0.8217324 0.45814911 8089459 -0.94272876 0.12734096 0.30829668 0.056359395
2.5614867 0.82441115 0.4539507 9930380 -0.99112439 0.13237594 0.012210555 0.018228816
2.546684 0.83944124 0.45056334 9799309 -0.98659444 0.03681859 -0.15898393 0.037118647
1.7251246 0.84596002 0.45253006 6634023 -0.013836863 -0.99355942 -0.11246431 0.03516762
1.7467561 0.84901261 0.4552764 6831917 -0.043545824 -0.99865532 -0.028131586 0.016164752
2.035145 0.84486574 0.45468336 8081729 -0.27189726 -0.96083319 -0.05358582 0.018569089
2.0788023 0.8470028 0.45112264 7886674 -0.30602813 -0.94873196 0.07908532 0.030015407
2.5545611 0.84930682 0.45227939 9733005 -0.98555058 0.1412352 -0.093502134 0.034375504
2.5629592 0.84307837 0.45476577 9864587 -0.98585355 0.16756172 -0.0040068105 0.018137725
2.5803037 0.84608811 0.45891133 7957873 -0.99275815 0.03475013 0.1149942 0.095122106
1.6887622 0.85699266 0.45558745 4069898 -0.72067934 -0.59992164 -0.34744111 0.060336068
1.7800136 0.85659575 0.45677042 6635558 0.15869346 -0.98711091 -0.020699548 0.0088839158
1.8069131 0.85731965 0.45730513 7226924 0.077572368 -0.99520206 -0.059627544 0.0060857255
1.8627727 0.85860485 0.45840225 7555630 0.02986322 -0.99902272 -0.032585867 0.0093547525
1.8749831 0.85880762 0.45383435 7883825 -0.029043993 -0.99896818 0.034914874 0.0058030933
1.8917314 0.85913551 0.45896283 7621683 -0.015425026 -0.99986809 0.0050860122 0.0093906149
1.9053609 0.85919923 0.45964998 8146744 -0.018497497 -0.99974257 0.013142435 0.0076187286
1.9217262 0.85973674 0.45954657 7556143 -0.030392852 -0.99891907 0.035170697 0.0057028038
1.9359385 0.85933268 0.45117813 7818549 -0.009367927 -0.99905986 0.04232832 0.0065493677
2.0241125 0.85517037 0.45251495 8214097 -0.26419857 -0.96444446 -0.0067919828 0.018736668
2.5468605 0.85859114 0.45019051 9733516 -0.97423494 0.06057404 -0.21724878 0.021678239
2.5633347 0.85746121 0.45996341 8022896 -0.97552502 -0.098130301 0.19677755 0.10221297
1.7998372 0.86281765 0.45265001 7160619 0.12731822 -0.99029005 0.055818882 0.0021207416
1.8271865 0.86295837 0.45809361 7621169 -0.0053298171 -0.99991578 0.011837388 0.003059143
1.8548092 0.86546212 0.45441714 7620911 -0.015007142 -0.99983865 0.0098720826 0.0060852431
1.9763284 0.8667773 0.45809925 7621939 0.014429069 -0.99987984 -0.0056691375 0.008999709
2.0579698 0.86671984 0.45009804 8214338 -0.31300357 -0.94759661 0.063949972 0.034087285
2.0799875 0.8620277 0.45177865 8016959 -0.34829196 -0.93135148 0.10619387 0.027944736
2.537518 0.8616249 0.45283955 9667210 -0.99040478 0.10039292 -0.094972312 0.036767494
2.5644314 0.86174536 0.45558083 9864589 -0.99463707 0.088534638 0.053466693 0.013431682
1.6970289 0.87401456 0.45699152 4200712 -0.78128135 -0.54691678 -0.30080146 0.072901569
1.9531133 0.87292325 0.45542675 7687727 0.064913392 -0.99736673 -0.032341968 0.0072903708
1.6889948 0.88223636 0.45509601 5581068 -0.6887092 -0.69313842 -0.21269432 0.089397565
2.538265 0.88018829 0.45397657 9536137 -0.9898864 0.036307272 -0.13713773 0.031503331
2.5659039 0.88041258 0.45639586 9667208 -0.99745899 0.055743858 0.044364698 0.013400024
1.6502893 0.89769703 0.45864516 6699801 -0.27252087 -0.95595437 -0.10901208 0.016895398
1.6809593 0.89033639 0.45320281 5977109 -0.40503597 -0.90480113 -0.13145676 0.02996891
2.5390122 0.89875203 0.45511365 9404551 -0.99507183 0.078201182 -0.060964096 0.019618645
2.5673764 0.8990798 0.45721093 9535624 -0.99161029 0.073072337 0.10662797 0.00086488738
2.5688488 0.9177469 0.45802599 9470342 -0.99967504 0.0093776649 0.023705073 0.019686306
2.5575697 0.92407763 0.45685929 9338247 -0.99772167 0.031871475 -0.059461564 0.019205131
2.565624 0.92289823 0.45147386 9404551 -0.99788028 -0.056741323 -0.031865198 0.060987033
2.5405061 0.93587917 0.4573878 9272452 -0.99709421 0.044904176 -0.061536748 0.017859055
2.5703213 0.93641412 0.45884103 9272963 -0.99510133 0.0030023151 -0.098814793 0.023125159
2.5412531 0.9544425 0.45852482 9206659 -0.99663663 0.055973284 -0.059853181 0.019058563
2.5717938 0.95508122 0.45965609 9207170 -0.99065012 0.0073857848 -0.13622686 0.02338586
2.5356598 0.98743063 0.45085815 7103073 -0.83628118 -0.35605034 -0.41696754 0.10553751
2.5207987 0.99817961 0.45192972 6971487 -0.92333245 -0.15182589 -0.35271257 0.09681771
2.5391231 1.0226748 0.45264778 6970974 -0.82015038 -0.37863272 -0.42894137 0.087543577
2.5242398 1.0331967 0.45370778 6772303 -0.85193253 -0.24392787 -0.46336839 0.063920923
2.4193726 -1.3630124 0.46032402 10654604 -0.97011685 0.10318119 -0.21960615 0.064405613
2.4338527 -1.3329246 0.46105728 10983311 -0.98775035 -0.0096565643 -0.15574344 0.066954449
2.4490778 -1.3212347 0.46183324 11377812 -0.99679887 -0.022072362 -0.076842509 0.062535413
2.4753006 -1.3260019 0.46117324 11772568 -0.98436731 0.10108201 -0.14423411 0.040524211
2.4369514 -1.316898 0.46169132 10983573 -0.98178446 -0.022697814 -0.1886377 0.050366849
2.4768162 -1.3067884 0.46201217 12167326 -0.98450738 0.097168654 -0.14595701 0.04101792
2.4323871 -1.2941196 0.46229011 11706265 -0.99020815 -0.0061313976 -0.13946415 0.060042165
2.4331186 -1.2759435 0.46340346 12166816 -0.98872578 0.066552363 -0.13413468 0.050651733
2.4606631 -1.2787974 0.46128207 12430500 -0.98373312 -0.049971186 -0.172546 0.022827731
2.4374621 -1.2614595 0.460612 11970214 -0.95746797 0.23104669 -0.17283647 0.057195585
2.43385 -1.2577676 0.46451676 12298661 -0.99479491 0.033873025 -0.096102469 0.041285373
2.462168 -1.2597206 0.46211499 12825259 -0.98454493 0.14453675 -0.098896019 0.042429451
2.4376323 -1.24298 0.46025223 12233387 -0.91100889 0.40970472 -0.046956453 0.055599976
2.4636726 -1.2406436 0.46294791 12891827 -0.98701507 0.15868045 0.024936497 0.06264919
2.4345815 -1.2395915 0.46563011 12496808 -0.99985951 0.015325598 -0.0067858696 0.026579304
2.4353127 -1.2214155 0.46674341 12497841 -0.97515392 0.21783653 -0.040275618 0.051176555
2.4828784 -1.2299343 0.46536779 13023154 -0.99158847 0.060174361 0.11459212 0.059693538
